0.0013877647346374979	0.11731738797245969	-0.6378160381576403	1
0.02659957171412905	-0.33774913185125416	0.4463143826455597	1
-0.1510354520077451	0.36590330981036356	-0.2848018405055289	1
-0.2679260493393085	-0.4232828322746174	1.8842513185626784	1
0.5929068684745737	-0.26685753095954773	-0.782967510924661	1
1.1656129401406263	-0.18972429310044595	0.048968258481323385	1
0.44720315376346736	0.4587375528690705	0.3199194237551626	1
-2.316353257506462	-0.03595737569719393	-0.3634882318227371	1
-2.6227912080429334	-0.5419010499697808	0.15832128611535753	1
0.36480312199189857	0.4079961491969332	-0.644226242580593	1
-0.6180808625037232	-0.7000839326873383	2.374062256970134	1
-0.6055046294893145	-0.40320608941643693	-0.09916776164200457	1
-1.2134398618326554	0.49833014705543016	-0.15776026111245706	1
0.5015456281795577	-0.24845334005329514	0.946702263921554	1
0.9091121366109756	-0.017074659890379613	0.06645202983114674	1
-0.1909477096415158	-0.3669830280307084	-0.13685010059877756	1
-0.5164883962297819	-1.7241562869989557	1.1643241551322385	1
0.24380798262312517	2.641760917041202	1.3160495578674754	1
-0.18070370616677303	0.11496978992737808	-0.5728403847240885	1
1.1146557316439816	-1.1485478164775162	0.010679385437804893	1
-0.24046885974868432	0.41316001404022173	-0.5509255833134363	1
0.400377170162407	-0.35392377810709297	0.2489744786726347	1
0.01018775720427013	0.17108287585352341	0.07689345200593305	1
-0.9137187208255717	-0.9387114366451026	0.5917388226831126	1
0.8434102837514871	0.5780918902375772	0.06261312043700092	1
0.5052678640112569	0.3502210497526071	0.383589563045341	1
0.46714238542409436	-0.21617554034533237	0.9085486022577645	1
0.6115215583325846	-0.35557951243902514	-0.4803278188678016	1
0.37629670702245066	0.739110298219467	0.6822326429680466	1
0.18892476896550434	-0.6809363511258425	0.3054392002747149	1
-0.3075147829535493	0.9390856695057315	-0.2092523020816631	1
-1.38951678090442	0.6167826971008371	1.054992634046324	1
-1.4056383607997063	0.9879571940413073	-0.5925558268928817	1
-1.3388546122275722	-1.6770659148243547	-0.6416719141558779	1
0.6744965580528942	0.6067589532150869	-0.50785631829274	1
-0.6128742274834184	0.43085523668999093	1.2153566680671128	1
0.5061362855804845	-0.9862988538477226	1.2602854441610116	1
-0.6295717722535985	-3.035509058102671	0.5815953947522361	1
0.21788326885800682	0.4405380759808138	-0.33593236035731	1
-0.033986312282316807	0.07677894857241245	0.8482419494603067	1
0.3428977091273656	0.2556478774278496	0.17988620072506575	1
0.01913166975748158	0.2988642168750038	0.016177864420747617	1
-0.018448427316162697	-0.3138084936638772	0.3604043451673769	1
-0.6956025730603617	0.29524612968362574	0.32319973964062787	1
-0.5359634829829194	1.6211275581209452	0.8945271828913515	1
-1.8805480121949745	-1.430659532251482	-2.2291541930286547	1
0.5193261882952185	-0.0847912584955598	0.7053662712451708	1
-0.744241934617449	0.687783663226327	0.7169441019419203	1
0.3443484439897142	3.0802022891852276	-1.3394863928347849	1
0.56671974655996	0.797719283503752	-0.4878166803412626	1
-1.3215759207306936	1.2704158035443944	-0.4262986509955006	1
1.1246950686685508	-0.33498549761996865	-0.14767760926545936	1
-0.1777863313251585	2.9461245298529595	1.5746034772901507	1
0.24338010511250102	0.6619373253610685	0.07056861278136167	1
0.22375908189093655	0.506008277916048	-1.6393123212521612	1
-0.016466570215056785	1.11222414827617	0.07182173637815426	1
-0.7160735724364281	0.945733038304597	0.5845875751209488	1
-0.39334550583585587	0.4114692526910353	0.22300665301293182	1
1.0234588127733073	-0.4096353782367501	-1.5720287265000392	1
0.016196827090128964	-0.2244406726968565	0.47070686814984386	1
1.4028926565636397	0.4150850395500536	0.960492180950328	1
0.8677895107867823	-0.4591733154665139	0.19886918160435496	1
0.9748425349779302	1.005374614849132	-0.4123714228318481	1
-0.24415331790831532	-0.06626467324158453	0.6555184404590346	1
0.6841732852703494	-0.15359556458866697	-0.6996461197514275	1
-1.5646641719642793	0.03574040554345171	0.256578331977825	1
-0.4487566969747052	-0.5055633356067911	0.0942652383926013	1
-1.227903968381632	0.5739066546543156	-0.03819143174957716	1
-0.012555373895595103	-0.5172835161247953	1.3214654485212751	1
1.1805352500599666	0.5701316895162996	-0.7348855978001602	1
-0.5920157870598	2.1796828342171835	-1.570630487573967	1
0.2635093957166094	-0.24733200667959604	-0.02230502341166187	1
0.5861561195849109	0.9005180692241044	-0.6054179634165745	1
1.3126237965700127	1.1498811324585256	1.9127110638378302	1
-0.4258022068115741	0.790100829709277	-0.7281230191857673	1
0.44637651681318546	-0.7117358604923926	-0.2240115619267048	1
0.22062115150068373	0.7322723837206464	-0.04471282774686675	1
-0.11097962193272638	-0.10773790083269517	0.5342390451007546	1
-0.8543864288703545	-0.32752436104580995	0.018549311133222817	1
-0.5099688950249548	1.220208759397009	0.19289279975939086	1
0.6137346644970769	-0.6347146331847566	0.5540101025942771	1
-1.31315668940061	-0.937440652152454	0.3062540882772828	1
-0.9767273129709811	0.9193946072063078	0.24840923010664928	1
-0.15492986933736527	-0.10333376104126805	-0.17586105459819307	1
1.1249840569339336	0.9328382010259346	-0.4734111065299896	1
0.053478464614998764	-1.8676116495186124	-0.34933918087457133	1
-1.5248835432155687	-0.3892846511207937	-0.2659549872472236	1
-0.3230172269772734	-0.0430773456637365	-1.5078697053892027	1
-0.5518032709450639	0.9075896889990553	-0.09514779443335082	1
-0.029789441283379993	-1.770896425397399	-1.307692276786203	1
-1.4541969868812101	-1.3211243200074922	-0.13733522638074167	1
-0.8133855920461727	-0.37679148704275583	-1.5987510050191118	1
0.5793705962328497	-0.34297499426126116	0.4154359593299322	1
-1.9695178559459516	-0.5381540410140684	2.1345299504392266	1
-0.7664014326487583	1.170272309998005	-0.22249057035690184	1
0.6315507520366231	-0.4539861273142822	0.11467146780892298	1
0.19599801727540997	-0.8834623865802137	1.24021246837314	1
0.06986029002455757	-1.2941772067461534	1.0668032107377787	1
2.1989497919926295	-1.2249074583400217	1.1952295910278325	1
-0.3573668730058419	-0.9616969229356066	0.5440662045118044	1
-0.0657467000149295	-0.08497663012233991	-0.3985079971319136	1
0.38708841849607534	1.1670658763470236	0.567278204404637	1
-0.13884841172709558	-0.43055737351679196	-0.5902862568152684	1
-0.6006979221914076	2.551721574382141	0.8333278949135142	1
-0.6862896790680765	-0.16931891770887791	-0.36167298665361575	1
-0.8360503622741139	-0.050434464163799646	0.9517800697059988	1
0.9134603243630239	0.46929430548967016	-1.2069697243611377	1
0.9961922724494149	-0.49718859686450934	1.1130985011363885	1
1.0154043999486793	0.5475031005033227	-0.21930713164172472	1
0.07995212242402672	-0.09629419024353957	-1.0724501088841525	1
2.1260222415829637	1.3574709044244542	-2.882145185579942	1
-2.708604620387857	-1.6708430391027906	-0.6309182061286549	1
0.37007111749355776	2.524339985090994	0.31508766535336347	1
-0.9019439184272583	-0.5398102152202406	-0.774736343721147	1
-0.041514468887337425	0.9512250778346766	-0.011651733246565744	1
1.1201182260913907	-0.2690238638492433	0.19921932267744707	1
-0.35038678470809426	-1.0540056485672618	0.19218365294246986	1
0.15249921881468734	-0.0073952652097831655	-0.1578446798388024	1
0.4070859766962077	1.586564793939089	-1.1719790941017494	1
0.5128298023456078	0.18417267563121123	0.07468342348687192	1
0.8043048524857284	1.4993931184184601	0.16946861551606898	1
0.13046802970902963	-0.2687496081524997	-0.5077633029658691	1
-0.08165157458564687	0.6007599365513316	1.5432286701996145	1
-0.7424102546650498	-0.07754069023312714	-0.34702556967198717	1
-0.08775838879463585	0.09665052105013294	0.7403673270423837	1
-1.5817022258251396	-0.7958745712241755	0.5158440817784798	1
0.3530037399395581	-0.00032003705633003586	0.5525336904977962	1
0.42698997394684685	0.5811276949682117	-1.0594432751981422	1
-1.6744398019513886	-1.2855198114975341	-1.0363249018978438	1
-0.9528337137221253	-1.2811024013509986	0.4699134025935033	1
-0.7936104546351147	0.815167647403943	0.1435222833393835	1
2.5361403597313035	1.899738190173984	0.9975158451056052	1
-0.27051611712407675	0.22583416358154726	0.1605091261299537	1
-0.48529022250250525	-2.9278666432887563	-0.5668478484234498	1
0.021758987260696725	-1.7928999222872346	0.7384705764194993	1
0.9325546693172827	0.2889468596518353	-0.32342874644075614	1
0.8994299945016433	1.485425940990955	-0.5856697033567047	1
-1.1062328472991634	1.5244847993340924	-0.13808517060605285	1
0.41014918186908006	0.48921052680985355	-1.113918072821204	1
-0.1762282147447703	0.016157237024168755	-0.694145665221695	1
-0.8464930044871349	2.36004423638514	1.0440517724745708	1
-0.8690236782861612	-0.5635614621960523	-1.9342599427588254	1
-0.361780488973833	-1.208406587381165	-2.7802937910067818	1
-0.19176282899189065	-0.0016688283582037495	-0.22370368153789189	1
-0.04116169308834411	0.26265891571130695	-1.0510650457342712	1
1.2217730813171999	-0.43720021495367367	-0.7714061363466164	1
0.6260614655937539	0.9033560317367718	-1.3516717509967349	1
0.3364962307516967	-0.6260228603136413	-0.835426519852572	1
-0.013310843083604439	0.8551228371727535	-1.6262306794732482	1
0.4388572590164768	0.3965487940647954	-1.4482506873707797	1
-1.2004234508289098	-0.47640468887441884	-0.9020211388584121	1
0.5038660930657813	0.2050263291316452	0.2552188084281055	1
-0.49155085603963833	-0.2790831633733662	-0.12653770043313614	1
0.9857723465516864	-1.1593331284625903	0.41322848045130683	1
0.4366705046259763	-1.2549242702149606	-0.9900191146218965	1
-1.6773419130950167	-0.058450629387671434	-1.1681365389809386	1
1.2920953574946141	1.5512779847636324	-0.6066639133730497	1
0.6210990605492466	-0.6159563254310089	-0.8673008407014077	1
0.08278966211777863	0.02418856417420271	-1.8966987271578706	1
0.14786812759743576	0.3545411775029187	1.160164690973474	1
-0.681304488000213	-0.2783782381884205	0.2032044146791668	1
1.496342521577516	1.2897722653733315	-1.7402900796453864	1
-0.5535332146984395	0.029081017773675576	-1.3356898092744651	1
0.4341303083952522	-0.6302309501207964	-0.3999690220898763	1
-2.251529367441363	-0.9345059338016064	0.14670650829944956	1
-0.5797431037538302	0.38352185207684364	-0.49639911887101285	1
-0.87203999683702	0.8019018427752382	-0.7311635960135032	1
2.089087196033597	3.337589699499485	-1.262997389571378	1
-0.40484569674171117	-1.8308116659011313	2.2129300381779604	1
-0.2773522305884266	-2.1722611377443224	-1.1429268135243351	1
-0.32522523790817437	-0.12271796282940055	-0.5889808246674302	1
1.336606311671778	-1.8825305598776378	-0.4704092770386056	1
-0.42797159683359876	0.600366406483398	0.021620811225555255	1
-0.019054400935298817	0.6687367568483163	1.875357258119897	1
0.23478038479334926	-0.28536703988560075	-0.9264646115536912	1
-0.565797119902753	-1.223145700246847	-0.07838921675146666	1
0.7587683102200184	-1.496737303249832	1.7889146379486474	1
1.31040545117893	-0.6847858264082856	0.9001209926089457	1
0.7364777302013965	-0.6035505665361581	-2.846368437309911	1
-0.23407101926311485	-0.949880660335779	0.098111461898217	1
1.3879624352452986	-0.33609443686102747	-0.3988393906597583	1
0.3051400226692703	0.34193484633341387	-0.7550127872485384	1
0.48505881637544096	-0.6843751601275533	0.9311264739460189	1
1.1524216590439083	0.051301634430044846	-0.04286470698837538	1
0.39730831527251387	0.07896390303813769	0.019172642209516373	1
-0.6232318868666666	1.2217191709988882	0.1923732634480698	1
-1.2373643480461272	-0.036147270275765135	1.541600436633503	1
1.6516894348644824	-0.39392697793104403	1.4595280500831094	1
-0.7253773851432723	1.270622760976408	-0.7688520967977297	1
-0.5473047580042201	-0.497180587863491	-0.5112254880249092	1
-0.2766279769307476	1.6157846815855674	-0.49463516004620267	1
1.355864010359098	-0.5387157538193047	-0.4017476240915768	1
-0.2925569269941599	1.0297035755502895	0.28446748455978677	1
-0.7255797699139741	-0.4240773466134464	1.1853793602710512	1
-0.2896681984931336	-0.3647588245194851	-1.0760737685424655	1
-0.6194750774077518	-0.6978059797290245	-0.652284100180897	1
1.0389252957814874	0.52702378755504	-0.7720239326345535	1
0.6322843553187122	1.2680708036683364	1.2335233913781976	1
0.3314310818670628	-0.6389339010840358	0.8221829276007843	1
-0.04219742878815069	-0.08805995041591846	1.1053654503838697	1
-0.005925970398741519	-0.41947739174651305	-0.3954514899335449	1
-1.096505607414365	0.6839069415974569	0.02405036329198163	1
-0.10134560122302054	0.6703956982087808	-0.16818788971472257	1
0.6800546269509273	-0.05270077857542383	0.5215827546379715	1
0.965814992134588	0.3751174665777682	1.3130406280627553	1
-0.7284773711703245	0.1046519350419106	0.7269672629381096	1
-0.19803958896795346	-2.543917934972614	1.8166935418066872	1
1.3076021836884346	1.2348364367946172	-0.5655998422822784	1
0.9245416422677152	-0.256405058042179	0.48021023259079293	1
1.5346952426584328	0.130362937401776	-0.3005511557766945	1
0.6128632139464262	-0.08842387773541349	-0.84574156854234	1
-0.8691179299751579	-1.102851741411416	-0.3043842016482217	1
-2.1270788555507227	-0.577633773079985	0.3244770876114087	1
-0.43987447532591367	-0.4102229196015896	0.34976899685969276	1
0.0896397799081223	-0.6586988648080017	1.0131503334544072	1
1.2692466494233794	1.6973894480156972	0.5603746772194352	1
0.3527326706715307	1.5057302699554307	-0.6264533323112538	1
-0.3779201055088621	-0.17860364898717657	-1.0100941624050388	1
-2.3735922669429557	-0.820676182836636	0.4266729525622587	1
0.5297899012668953	-0.554546658621578	0.36728569139006767	1
1.4290785997950513	1.100142447556869	-0.9866090960619035	1
-0.8903577972470466	0.08706459154870566	-1.8693413836844381	1
1.3297257744215913	-0.9267079975953881	1.0404467822496488	1
0.9190749480967276	-1.4119395715572323	-0.48152322512789514	1
0.34905037068897193	0.463423505624269	-0.23540409457097244	1
0.00430017522550784	-1.251137441340473	-0.5355054130298559	1
-2.3445820456414657	0.972846099657196	0.02946446130923282	1
-1.417532944864469	-0.11246813808598682	-2.0939088666451724	1
0.35895601019979223	-0.21658784538872458	-0.7335342299601728	1
0.4516876976344842	0.6802689300916888	0.5612975429555386	1
-0.6682429050631018	0.53899455461532	-0.5172764928599584	1
-1.3907376974734953	0.039201140400255546	-0.3597597302101326	1
1.6592140744649775	0.34202169719344616	2.3898030404884536	1
-0.8726502375373452	-0.2554565743634572	-0.631041018162692	1
-0.31719721796954514	-0.18244359082344377	0.044958393674422004	1
0.25327488405825466	0.07452201566781526	-1.323333969883575	1
-0.5048806334917376	1.5122988612747519	0.7315643647473548	1
-1.688005129172733	-0.8516331961936419	-0.6163412317206498	1
1.2176245808206292	0.7689376733956536	-0.6150770074431833	1
0.9867709653680508	-0.5185712048670992	-0.2119873877520123	1
0.03958519733816078	-1.4520703302135307	1.4810532472210813	1
-1.8235016363487888	-1.0002227036761346	-0.5851667651941642	1
1.854811279816228	1.0911741113695033	1.7482374075493392	1
-1.4278483563638578	1.0658683646679556	1.1203264170145193	1
1.3866896625005207	-1.898648436142511	-1.1847946685618722	1
1.9769454678767615	-0.6553241443591188	0.3311339664627745	1
0.3938072915404336	-0.29851523085624937	0.23372648628824932	1
-0.015910532248859306	0.23962621770611855	-0.15960384937653152	1
0.9396041406104151	1.2962880899654285	1.523352313472234	1
-0.40376270845028794	1.3113974168538005	-0.653142120220491	1
0.2729098399645254	1.526123547342243	0.14631366128472106	1
-0.41600297990167256	-1.1084619190410132	0.47276430996875707	1
0.12326499032194273	-1.1884033452577436	-0.05613996181002045	1
-0.1785282791205427	0.9463626902553358	0.29285195033641953	1
1.9626927035168533	1.4644414212491488	0.16881846218078786	1
-1.9603742658829113	0.6620809042641671	-1.2510063244314054	1
0.8987809324384562	-0.11245582525102842	-1.3868726127210094	1
-0.40596468840624805	-0.1380860711350853	0.22471259006931493	1
-0.7650001036379662	0.6989136193430329	0.3976415199337311	1
0.6841431985846649	-0.9447327171706635	-1.497508665685662	1
-0.3402281343676836	0.06374202158644855	-0.7549414654766519	1
-0.40797062270564777	-0.5943696360051355	0.13698881682339328	1
-1.8722175413713829	0.23604644268681896	0.09590136416106254	1
-0.7429985384861792	-0.011100513193565002	2.0798899470192604	1
-0.6288599250967127	-2.762179805319487	-0.9477899113856215	1
0.623278421109889	0.34128210638867695	-0.4547339435295953	1
2.6495519977201187	-1.4409627609351745	-2.142959982297338	1
0.40039522753182594	2.7955607359891625	-1.056655401357288	1
-0.1737299104372928	-0.20478311435618077	-0.1303331702184032	1
-0.7691848293861788	1.3019070773583474	-0.7810024369576524	1
0.7540222193610647	-0.6206038592534227	-0.1414059237724667	1
0.4705394486382768	0.41238517641351474	0.3179893829476436	1
-0.5142324664372641	-1.370146129211566	0.2374360099326887	1
0.2651208454781025	-0.1645628711368379	-0.8046282726182673	1
0.9238038752871862	0.4039807805623435	-1.2448607112956933	1
-0.9893585498302602	-0.13299264083972553	0.795334009203594	1
-0.8088738584302774	0.24537184932994102	-0.45970468702034467	1
-0.4160524404276388	0.6901212482873528	-0.41081727312964356	1
-0.23954083419842565	-5.127331720522575	-0.219328921110076	1
2.9921274562179834	-0.3707194847295203	-1.7047984797214557	1
1.044722379348427	-1.1322835719455144	1.996950832355195	1
-0.14358891742207058	0.24287091694839033	0.8061984785267919	1
0.1549841876872026	-0.9844158942787054	0.028673450728478964	1
-0.9394226388808077	-1.0431262592700195	-0.8074805552706494	1
0.3490030234631416	0.04986430204152877	0.04276194803244362	1
0.5031666985584714	0.360164618983158	0.3544438331272669	1
-0.977594925380124	0.8731550396804059	0.28070785899934286	1
1.3392678734664736	1.3584176627623819	-0.17484503842558358	1
-0.41478692102027176	1.1933520441066707	2.4519974165214027	1
-0.3065857768792188	-0.43002443443379645	0.619693311012583	1
0.6784945432859306	0.7993724617631994	0.1742524347531393	1
-0.16480617724815036	0.7393786812815875	-1.9503534210315236	1
-0.3772447457456033	0.45191372081875636	-0.044741928403799425	1
-1.3401543857564815	0.29652437438867424	0.7810217460125317	1
1.0911291272314838	0.28331693526347945	-2.577308813232857	1
-1.1835588769126	-0.2128366044265009	-0.1573613569764667	1
0.15460151575642164	-0.01314999563366722	-1.1159239422504466	1
-1.06173510512466	0.36841267173491415	-0.35549872746633543	1
0.6872025362945094	-1.015327575341043	1.6465989473859117	1
3.1993526126054737	0.8850006075559096	-0.4828499430787256	1
0.40118533098544995	-0.12899400199836583	1.5104337270104067	1
-2.518957410406237	1.9595511337486273	0.739406419131548	1
0.17790315171320858	-0.02663773880355126	-0.7850217095428912	1
2.075930663256182	-1.4162780582074106	0.27794020196690716	1
0.3367792437468725	0.4573460436657649	1.3240180921982858	1
0.5519185704244871	0.4147352814846056	0.13317383943441088	1
0.5909519589153615	-0.9840073784819494	-2.3476496603370443	1
-0.49344226397336577	0.13671105892615731	-1.3551156086669343	1
0.4457953154603934	0.39520825541211163	0.7888461698135799	1
1.5364384463052663	-1.734046603842586	-0.9253330866961417	1
1.570752556204685	-1.241877910461434	-0.38934497945427043	1
-0.44215615064749375	-1.2616186913119656	-0.025642316387320046	1
-0.0415587170522272	-0.1753150971016125	0.30905049189774264	1
-0.497553190307234	-0.46943191868151757	-0.19080905314862995	1
-0.4709112554930596	3.3196006950001173	0.9736671651235054	1
0.22184039052777346	0.24273704959600484	-0.5849904905825871	1
-0.9657341383565085	-0.3291444161646414	-0.21605147358847734	1
1.8396369951651674	-0.6512987815680981	2.0066731701917977	1
-0.039939407607878896	-1.565778685197718	-0.483043857060218	1
-0.4892172658553058	-0.7833913560651884	-0.8231253232137953	1
2.0521156043661595	0.8527071461452291	-0.8970458833035188	1
0.07096099731375512	0.6645255603801559	-1.6201196291170294	1
0.5170790289198941	-0.7269782529188383	1.1318781894413796	1
-0.026615382345139365	0.1172390461561873	-0.3260888999908727	1
-0.6590138628681327	-1.3556088561577042	1.9402608082801518	1
-0.7494880685201812	0.641343829994199	-0.5756525472285033	1
-0.6289494179106007	0.3689534498054701	0.5036516528094415	1
-2.459491344695598	2.836960359017619	-0.17467948610890488	1
-0.3600895339776182	0.37089322394004437	-1.9824410681193296	1
0.7014074793762991	-0.7154384055270908	1.688919113461104	1
-0.35291158554399554	0.044316560885354274	-0.01637471724888806	1
-0.4410279769459622	0.9473983715441862	-0.0888664216517647	1
-0.31443016054419054	0.3378432188316345	-0.28464118293034124	1
-0.8558616770208953	0.5509373493189679	1.4223554124373479	1
0.16724808514673994	0.03429554977338203	-1.083921401027237	1
0.741263241329132	-0.2199894135168118	0.9008484386124821	1
-0.16963742954039276	-0.25341837781937515	0.6411572422635257	1
0.011957076759319094	-3.1265798119035115	1.3190787733995815	1
-1.1409224121972301	0.8372371336373197	1.4810933946356653	1
2.050766780229604	0.06781025500503068	1.4087632500688958	1
4.329415344680827	0.518332978822346	-0.7218614957589742	1
0.8088928276344423	1.9351999010755832	0.8872422588772808	1
-0.4705975908179642	-0.16174601841493283	-0.16070490327544326	1
0.892149627522817	0.4253858807745158	-1.732592664098483	1
0.1257448355664227	-0.7939915689745578	-0.9372536087952353	1
-0.0358966900528794	0.04530251143131944	-1.1248594490249464	1
-0.4699461313506888	-0.014620865605770587	-1.083237969070983	1
-0.8456846421145227	-0.7117857311212421	-1.3087026823860506	1
-0.001454105242087694	0.3360155740463404	0.16421880453829485	1
-0.8517384980819686	0.015309441004409959	-0.5334356035653116	1
0.6195553666578066	-0.6624525649281862	-0.0442675585943573	1
0.2607424283818312	-1.4492449562155896	-0.26508402026741296	1
-0.17252164312046803	0.24075015377691386	2.6566735931948937	1
-0.5463981898816522	-0.0035274061453944325	-1.8774905887515734	1
-0.40027099481402756	-0.47202745981853633	-0.13188964918180054	1
-0.8883987775412439	-0.9747558478353245	1.155916751624741	1
0.5389221474369406	-0.1299683503336778	-0.13464395763985712	1
-0.7666967370279487	-0.41882088703613574	-0.31816301292572513	1
-0.6143692910333549	-0.11813218953874285	0.36640954993234914	1
0.4844323525071491	-0.5475403627179178	0.14363105987749455	1
-0.6583164831592722	-2.1672365549614323	1.8513623363227774	1
-0.15769152840707484	-0.690214975639046	1.1164509366010844	1
1.3328688000265398	-0.35402355433523386	-0.15257571892567146	1
-0.20198356489255725	0.15843876858031955	-0.15110053530223386	1
-0.5288920994331154	-0.17159519093128667	0.36358254692526437	1
-0.5689018733506332	0.19618735303868498	0.18796288475408326	1
-1.045379450152212	-1.0583954813945595	-0.27789834969712673	1
1.575601439400984	0.1405976918579645	-0.16875479362547305	1
0.3209501364176871	-0.3564615127371419	0.9714807384203827	1
1.1530058202558031	-0.5606011699565286	0.17365614702627027	1
0.5552007656227661	-0.8445054159908596	0.8127738478848865	1
1.6945042567080004	1.7237959427841678	0.7019125620692672	1
0.08053196452362346	0.7730683497890235	0.6766683275639664	1
-1.2497927213148954	0.43470419956790124	-0.7213532727166413	1
-1.226091718672303	0.5342951837296304	0.7993237505227505	1
-0.8167992386791834	-1.186566455142351	0.3563866170914389	1
0.3487007229553249	-0.32226662093633474	0.16198712055117725	1
-1.5844378020515812	0.4496968200271899	-0.6546361280045561	1
-1.3741098089860526	-0.3889227944388588	1.293106837416221	1
-0.3882060904120385	-0.5788382864811652	0.5551769408257947	1
-0.14447884442913947	0.8767464031207467	-0.016427415965514558	1
-0.9579729979937786	0.7252845506386075	2.237643408745911	1
1.9879501902408196	1.3202789080325974	1.976577930525748	1
0.08811819178033473	-0.5366250782681724	-0.14481752817313068	1
-0.2929081946076979	-0.4766522005925141	0.21802660922162764	1
1.1652150494433706	-0.30830457364928265	0.5278481417349342	1
-3.790601376505797	-2.0798430385222795	-1.059052806972062	1
0.2630892111387725	-1.0999258982052147	-0.7328982584504292	1
1.1680744207168756	0.5639443572286723	-0.5454478662307644	1
-1.240171046048309	0.5818326078187812	1.1004471637894802	1
0.2738455027302851	0.4162886651024391	0.6119637373690939	1
-0.5295910048710687	0.47542315625834897	0.3510600658324085	1
0.41698240371783907	-1.3766672492821217	0.213237292760059	1
-0.5262213051361174	-0.49471950889657246	0.2470735724230219	1
-1.465458695836205	0.6374921686260484	0.28616927539082343	1
1.301126597270299	1.5728569141733844	0.36666510062212554	1
-0.7535241782593272	1.8413749535401271	0.7340809123449181	1
-0.4947252267961216	0.7994152508928816	0.168316029816232	1
-0.036055538162113474	-0.14354512527180416	-0.5823899833146684	1
0.7010763771172565	-0.22640663672449457	-0.6966103517032846	1
-0.5996588799442032	1.016827733075863	-0.018427060199231772	1
-1.5925062703976107	0.3474932189239062	-1.1497865432464927	1
0.5568384590803922	-0.287153571330865	-0.3832269630229264	1
0.07805443239739843	-0.2683723683873202	0.4540992024493396	1
0.5130987204927885	0.5131565000375384	0.22224047809167224	1
1.5734957124542501	-0.5794361939090094	1.1185428886035038	1
0.9395550444096323	-1.3034124538610952	-1.0072084878367487	1
1.22971094409699	0.23658955129533846	-0.7118709145903427	1
-0.1218424082717321	1.7345410017361524	-1.3210011350195796	1
0.927795837163988	-0.39588620795650276	0.0935750816210794	1
-0.9490103686689059	1.346314636421359	-0.5517030291792021	1
0.9498614967814623	-0.8407360538114393	-0.7196877679517593	1
-0.49668592410626167	0.013014379237537548	-0.2573822294260752	1
-0.12220825636080256	0.4057272340292795	-0.2195607838995515	1
0.5593948274922633	-0.3239595678376304	0.747117521605714	1
-1.389654438016424	1.3733168221239744	-0.5252296280520524	1
-2.6735328728242282	0.3574754476635763	0.4837512045795406	1
-0.4929236023409715	1.1716155893570748	-1.4441278304314606	1
1.2569400013539545	-0.452259250462242	2.4980259278717463	1
0.2826323507586215	0.15411594210326265	-1.1294023236442385	1
0.32537084155701407	-2.0319864972466215	1.2737076799798293	1
-0.3174291770971785	0.49390556805266134	-0.9985411810328383	1
0.1823121199783076	-0.2669690199778671	-1.2498341986176242	1
0.23793165417172926	-0.12384973934855036	-0.6515993296259516	1
0.7761653113718536	-0.11800371191354138	-0.19751742956330984	1
-1.4008984312727004	3.352831047899804	-0.618589800973306	1
-1.1068164936315563	-0.7941725931624417	-0.4266925117260875	1
1.8174743047466557	1.7385686475053443	-0.4481980782255138	1
-0.6565399181065528	-0.8920767313513471	0.9284897111287834	1
-1.478642962533577	1.1633457773238178	-1.5173152645109056	1
0.6229743296024184	0.32261846393355265	0.19308067688093145	1
0.13485269442023975	-0.03522996505052107	0.3301869875659084	1
0.49708382582729915	-0.4719178844526426	0.17793340762359983	1
-1.588247455352433	0.25815628158627524	-2.2291994113505336	1
0.028928801114481505	0.5229398305878433	1.1075479326716413	1
0.26872234972499115	-0.6748271289170114	0.7657477689693917	1
0.33672173741831424	1.1953472619178553	0.16082238988550268	1
-0.04453322495110043	-0.22667744970043657	-1.0577826123826444	1
-0.240194697040956	-1.9460345259788918	3.5474337174015953	1
-2.1109599075316416	-0.9038619195671033	0.841039050549698	1
-0.2034444336664463	0.19139065932340982	0.16045856545214499	1
-0.29270006377663954	-1.630055214859775	0.38547252651537905	1
0.43115259563939906	-0.09692263639927219	1.4281120706701622	1
-0.15158347160752855	-0.15343311575247412	0.011364263038241514	1
0.3831053606380225	0.2931155591568354	-0.35085339697126655	1
-1.1182515638635773	-0.18896469033900976	-2.4053870341750487	1
-1.0025942111698978	-0.7215735679057473	0.49744260422283537	1
-1.7950275634000796	0.9247253924279313	1.143080527605356	1
0.6109648545148869	0.24166803436970302	0.6689871686534424	1
0.4975700994294817	0.12337386275182032	1.1519952074670297	1
-1.522111909381606	-0.12405714678440576	-0.09963003396504394	1
0.9336506061344273	0.9410866765471618	0.1893339517372014	1
0.04222110674239553	-1.9767626255305122	-0.7975236745655977	1
0.570852241690798	0.07109193971058142	-0.27535076505657635	1
-0.14893909745673453	0.4614184304224066	0.02901156451064233	1
0.21355121180403858	1.3375812973363583	-0.16665863855008708	1
2.689971639479789	-1.4798650975191856	0.8864733340711264	1
0.9281494087384681	-2.0816381521579697	-1.2652561174242118	1
-0.2767481704818064	0.5205957542528908	0.09501391902942377	1
1.1113036298576324	-0.276413595923174	0.7348869232696367	1
-1.024551301170633	-0.7282725254916694	-0.00938320227701927	1
0.5215147661640744	0.7400816598891983	-0.2577118651234612	1
-0.5217093711947314	0.7321480334096397	-0.3035241954770371	1
0.04922455958493924	1.1045281936254412	-0.47130906274632245	1
0.3412467436132841	0.08064100785617832	0.19183220087606503	1
0.9636738492204898	0.9755372868359286	-1.3609202813250085	1
0.036318015520534756	0.13446631314014573	0.8181447541542161	1
-0.1942798366457266	-0.5104541745248602	-0.6406555962500454	1
-1.5325287768423246	-0.5983906550203694	0.6071327188775569	1
1.3581104208968755	0.590219582901921	-0.2245474978556613	1
0.18624359255617093	0.5998586497060377	-0.21219647748458897	1
-2.0745792947536796	-0.43018437818363015	1.8273162727982184	1
0.1096285396715207	-0.015876262196283932	0.8089337810906587	1
1.494125677499856	0.07777734244908026	0.21892771209573791	1
0.9295440106290171	1.013496234806269	-0.1900232487443025	1
-1.342846641384781	0.6179915487202019	1.0535788689197736	1
-2.7288860631220584	0.48968471769873645	-0.4227473136712282	1
-1.3182787160453722	-0.7419114005193096	0.10962174370837588	1
1.249309775889861	1.0752505985411747	0.7421707761140371	1
1.0607789215972003	1.5595128396666476	2.1565785739316703	1
0.9245875277375861	-2.226438699207077	-0.9113401606269377	1
0.24551219242494546	-0.6503168070261693	0.6420286157601779	1
0.581923831207463	1.9639802955533272	1.8375598903581047	1
0.11702793638483602	0.4965178943407401	-0.4270045448676051	1
0.7605677495968942	-0.09085929414948822	-0.5727510142093067	1
-0.26678635076798507	0.28447309415535227	0.12240318631133086	1
0.33176574909332507	-0.24839328202666333	-0.531708153154765	1
-0.7171387676462987	-0.053594947695808325	0.7076438274639699	1
0.1865381354838555	1.0953546147823408	-0.6718999528037491	1
0.19796524363693746	0.9628877560687481	-0.01658974209330888	1
-0.6483070151991295	-1.1085345095795407	-0.22999063902990177	1
-0.33393299731115134	0.09805357572403418	-2.571460481875959	1
0.09839939787684017	0.5559131253990796	0.8349144803672283	1
0.2403721793391458	0.21851027115051244	-0.41216748029287836	1
0.6655225298777229	0.5746389904572441	-0.21216615770988315	1
0.8057297190561284	0.8185627218472414	0.056756366246508004	1
1.920664180281053	-0.14817619753371916	0.32425715223297136	1
0.42576777562490725	0.4926956835523287	-0.39943223343904066	1
-0.5215995511267939	0.35420693614168036	-0.1931036276473885	1
0.7865176199837411	0.7428996728569821	-1.1101905106414287	1
0.4720647362764603	-0.20053198548437104	0.8859152485531	1
-0.4101357010395398	0.3356738207831269	0.6022393385554131	1
-0.7735657219763239	-0.10794876954818865	0.8129260538191706	1
0.1174020856581497	-0.46888105128079316	-0.6399027051993008	1
-0.9167571188301576	0.2186259400753708	-1.5192402110645484	1
-0.6115124945956992	-0.8660976879644375	-1.58593121923109	1
0.3775660121155662	0.029222084585250385	0.5002589106917494	1
-0.5095645466363298	0.8727526477263231	-0.5135787766586989	1
1.1976765167281012	1.0189285893033453	0.6134971192585676	1
1.2743350669603744	-0.03984159319395828	-0.1459537379312439	1
0.3113129704037859	0.4175373934549737	-0.5087673681873925	1
-0.5904305531266447	0.09364939600901813	1.3899932904874845	1
-0.7953261302378296	0.6722965899434884	0.3401817494754998	1
0.5427997680043323	-0.029488299810085453	-0.06731430745092355	1
1.181280567521699	-0.10038593793046399	1.144770933872046	1
-0.03959153078388864	0.313683184907872	0.3355668677519169	1
-1.4199735115452023	0.9590247217692425	0.8614013596034553	1
1.0570209788680553	-0.03872581108770302	0.015671487530372348	1
-0.020718466038086126	-2.2150357390695223	-0.4671791957589114	1
-0.11964277320250033	0.7434747851615089	0.13361400563554912	1
1.2181196256942735	2.7165473383107157	-1.8142794179285626	1
1.0814583891074236	0.8455102633652106	-1.7235302726815716	1
-0.2026004686969009	-0.3086161987097063	-1.280742402846779	1
0.023847952977155383	-0.02399351531729164	0.22510026243252704	1
-1.2646036934790326	-1.1227237310710607	-1.1463455505099782	1
-1.1188781259295564	-1.2099166427763974	0.3503932731186006	1
-1.0730480694759872	-0.7063241069527932	-1.034340032305769	1
1.139671571084262	1.9430402409770058	-0.30370613844145006	1
-0.8759819070016491	0.5011127516660258	0.24909645772142083	1
0.7338412182924595	-0.19568673647650886	-1.4704845227737535	1
-0.20728862613191398	-2.835483061002255	-5.40301543781339	1
0.0060661076813556866	0.466878340900212	-0.4223805157646572	1
-0.19354446941391815	0.3984330434896977	-0.8250480934320642	1
-0.217092093958588	-0.5346428257739081	0.6752498458598044	1
-0.03432841984771817	-0.7566121577302741	1.0427514070005888	1
0.20793950635408545	0.40896954694067045	-0.31132809831705544	1
-0.23953037213379835	-0.7195159831775825	-0.47500339324443713	1
-0.8916673406138663	0.43552643432537286	-1.3551318805013184	1
0.802668660721719	0.8655865265420764	-0.5229792916091069	1
-1.0251758403583784	0.47352224349021166	0.5200390063545695	1
0.03431931632019603	0.6513897316381737	-0.09338214208474627	1
0.6856665781017632	-0.5780885096484376	1.4889466219497636	1
-1.837011061906379	-1.08506314591608	-1.149283935970747	1
-1.6448282348443812	-1.4417284441122744	-0.20998494465299183	1
0.06821343622954115	0.30885950176869986	-0.010048247756249021	1
0.5612056363829903	0.20476539068178473	0.23769841921138854	1
-2.0878870516057386	0.8774406248582699	-0.7069976046746005	1
-0.5954361530819733	-0.5667651579358737	-0.823244540541864	1
-0.10020042753053057	-0.2729226505678269	0.5014226486531913	1
0.8557056302347583	0.023416631129253494	0.5112723604213215	1
0.9096343638661203	0.36286763476233186	2.7065222574202394	1
0.6436863629053478	-0.2253198051385918	-0.343897375590843	1
1.8425290344272023	0.1715578138880708	3.797898829144572	1
-0.45267177853075785	1.3378342330547472	-0.15030981186976522	1
-2.6917222496388122	0.7343941179080961	-0.774056928795624	1
-0.07170634302251909	0.5543563723879478	-0.6963510568071084	1
-0.7172267129105341	-0.3806709503098316	-0.801060459037557	1
0.02585182761612077	0.8588801699211641	1.913377059185798	1
1.88233500168622	0.16637024421367008	-0.12327987829204556	1
-2.019829429041485	1.1068031432396748	-1.5062495332152737	1
-0.30174230277936337	0.3134272915722824	0.2220261031756695	1
-2.0135574213517895	-0.9285131661710784	-1.88365045372899	1
0.641717877631927	-0.5578984931328033	-0.652545689140741	1
0.6946416864013176	-0.3593734113890002	-0.5091159930606176	1
-1.8529043977734918	-2.191424071517615	1.7350256552702557	1
0.01598753070769875	0.7527791824221953	-1.2862978593455703	1
0.6775865241089905	-0.16198968206679853	-0.5852794711574631	1
-0.6867464436123699	-1.14623625452463	-0.7464347643994402	1
0.7422077674514533	0.9955174609406816	0.9903430403346828	1
0.3241709341320542	1.1303066448134114	-0.8121785462285614	1
0.5066822795783605	0.9108797660338203	-0.5479740421356221	1
0.7804832802085331	0.6754970469194198	0.5592225257888631	1
0.618174677623617	-1.5963423475119478	0.4790642706207889	1
0.15071958663139495	0.3444241041500107	0.809733279084484	1
-0.6279896517879405	-1.0164219202503757	1.2445618332510147	1
-0.5988777160288415	-0.09028614861785407	0.02959782267319281	1
0.171974797132618	0.4165747989181936	-0.3999743654773853	1
0.8745160113438568	1.2325943209218466	0.9919822482064055	1
-0.5451264662211525	-0.007240718260772797	0.16945626445351	1
-2.443664065178921	-0.634818597016303	1.8450336779137155	1
0.32078760954001173	0.20320250748200155	-1.5066119408218719	1
-0.30770179673106096	0.2578780386974598	-0.5971877358456066	1
-2.256184410883325	2.242416754355207	2.6870038878050058	1
-0.13656991846779862	-0.19465160707699972	-0.16340243245976102	1
-0.561701057148281	-0.7251605417523318	0.38150756211138126	1
-0.09040509321485979	-0.6950207360705023	0.6597254954810501	1
-0.7395285224790085	-0.7023833402643985	-2.4499136106140016	1
-0.5026951111855199	0.08412316062432329	-0.4913746091839463	1
-0.38393655337102567	-1.0669011990094608	-0.09078728039871796	1
0.7580217348485743	-0.43242907959553895	0.36648012725029316	1
0.13871923068277756	-0.4181397893454552	0.06599300067763415	1
-1.0910289945693132	-2.223462243365826	0.7441471881660422	1
1.4352979824131347	0.4150954229848718	2.349024595144118	1
0.4529463014695524	-0.20602994556699702	0.45596475597916025	1
-0.11047630620468268	-1.1613838578871745	-0.5004441881445257	1
-0.45550395675785865	1.3509309943183558	0.9509422579690499	1
-0.7514612611136903	0.34448323216100124	-0.5174861396840483	1
0.2429804523962538	-0.25614561245573014	-0.1001396476262756	1
-1.6218467948807935	-0.6669427731400658	0.34008497233894047	1
0.6641904040007877	1.5556622220438439	-0.339236280897944	1
0.18257081635040504	-1.236870969201251	-0.5090944258217012	1
1.453161514598237	-0.6980791611505631	0.08867049489856063	1
0.6314761062783694	-0.8718827397990666	-0.1520926015845523	1
-0.21736818731676744	0.481658494642926	-0.969025962207102	1
2.818744871191927	2.2733375685478747	0.8213333109442019	1
-0.4607538293356743	0.039328834333814115	-0.4414307047629764	1
-0.7743490991317221	-0.3280760503330091	3.689928464034876	1
-0.650715865380641	0.8795810759989439	-0.10839843293574271	1
0.0666050828721145	0.5022318053391656	0.09093815911099883	1
-0.6201762113283399	-1.0371634117534827	-1.1610407465117816	1
2.224510292081857	0.6103493273411351	-0.6404762519611406	1
-0.25494279719682456	-0.39829940038620526	0.36820760978940664	1
-0.1858243420490022	0.6273009699829236	0.7749382360790186	1
0.6637502461637965	0.3884365795867659	-0.2811387035960792	1
0.3001426064031964	-0.5432318955304651	0.5684143296081299	1
-0.2873337668170441	0.9052962610655837	0.32737766607282215	1
0.6673994462508144	0.5570530095577546	-0.17382022043310344	1
0.06926211099082528	-0.15597699989264052	0.1499485108076686	1
-0.5686761013547172	0.8733827616831471	-0.9816113687627158	1
0.05352672475104378	-0.6803194411088048	-0.0870647392288056	1
0.6352970245681513	0.40596924097660186	0.47150395723546873	1
-0.46395406942658635	-1.0720205671497753	1.2203787705914166	1
-0.941440893793163	0.24839214493866366	1.4490386910016242	1
0.6012167241821746	-1.5071392603557165	0.6939312588789349	1
0.8073795583662271	-0.6047965279815856	0.37940979872174985	1
-0.5807752004300428	-1.2704853511524241	-0.14097828672652246	1
0.9087318661588064	-0.5610670698453795	0.11373388019160158	1
-0.4640336915673061	-0.04433098535890843	0.982968114551145	1
-0.17602137715327418	-0.25936703324016536	0.2142885977866771	1
0.8703384224524896	1.5539397329289126	0.11545560168569395	1
2.11654640988258	-0.3335903391955637	1.5669719232193937	1
1.9676911534301347	0.08482675120255041	1.1647347094662996	1
-0.03884787708763482	1.4334385334606197	1.6767559469233375	1
-0.2708880541629739	-0.5835899107694176	-0.25852619442266966	1
0.041830862724147475	-0.12664936622730194	-0.48754742684530483	1
0.732486634621434	-1.8029677151929555	0.2164300593878625	1
0.43130682068159787	1.0572680418842502	0.0080067065836883	1
-1.131148008296768	-1.1627391870156536	-1.1007488305624247	1
0.3831707925601482	-0.16532976063124552	0.14343191185889803	1
0.0666333578838849	1.7742907024746282	0.81516418124526	1
-0.8959005920214411	-1.132355356299115	-0.8435140859450703	1
0.31437302572414344	-0.24453408186985856	-0.2348563757484501	1
0.05955927858521813	0.1838676893586934	0.05955973321259171	1
2.5956160843448504	-1.4793696323129477	1.005255711504356	1
0.137597233945654	-0.13257383491988037	-0.07536640002651644	1
1.6406967582450913	0.2560570103052739	-0.848105423029872	1
-0.3834472010195357	0.017969666353721613	-0.40661497895757553	1
-0.3602652090070585	-1.0395676778423146	-0.7708767121959983	1
1.4879504645351218	-0.11651823322799823	0.27497072551339075	1
0.14722592452816052	1.5898259053198862	0.301183755304085	1
-2.69779847222285	1.4639877367820333	0.7770526404016787	1
-0.8686064979330631	-1.6563212258866962	0.8404727315341637	1
0.7028858096340814	0.30840168412184166	-0.3499303817154784	1
0.9554387737763187	0.22052282442815002	0.9218477180342421	1
0.11501241448749315	0.7461239364606451	0.7053691589030808	1
1.2583837474225983	-0.810570587165503	0.8797241338494528	1
2.4123052242177327	0.40660802879214597	1.4860510042623383	1
2.1717591875294935	1.6076713797803934	-0.4933776927607576	1
-1.6143145866484883	-1.0421797966612287	0.19156811301476873	1
0.21852806027711416	0.12388862558216919	-0.17415696367437114	1
-0.5707664008562386	-0.5784925635522512	-0.3623082146200998	1
-1.1322130076458252	0.71006226662013	-0.4668910984415812	1
0.09573376404622543	-0.619257646917255	0.16806970891158313	1
-0.9383115141015913	1.995192775179225	1.7372059660810566	1
0.14881672371731788	-0.3615262224138821	0.2405706215747321	1
-0.08545708517957978	-0.33281936429283104	0.044617904066225136	1
-0.6659324727923328	-0.11418837453816982	0.11114590240534084	1
-2.2321507362208237	-0.4661522831430042	-0.2856720071253884	1
0.3927404783674785	0.05686037944397912	1.4726090734053512	1
0.05040752645865892	0.039000104765930216	-1.3414057052549977	1
-0.6899060338024073	1.532397368574722	-1.151887473129745	1
0.6386087330698524	-0.7625674055740211	0.29846021169239945	1
0.05127552266620565	0.4108207587858255	-0.36392537764512545	1
-0.03238090601783396	0.09278046273309173	0.018053950514369234	1
-0.3626292641285991	0.7590737871455753	0.3160821252835628	1
-2.95125355316124	-2.9510430595009516	1.045533536387487	1
0.5380204833669985	0.35552844666333394	-0.07129980315608238	1
1.1571278953762802	-0.21225607704143976	-0.8855767798058571	1
0.013816368916017159	0.0886650576103079	-0.4486097778167033	1
0.6009100921630633	-0.6518092141951698	0.15138806443287994	1
1.5770439122564237	0.3717263127071355	-1.1739613041196983	1
0.9549237445978842	-0.7636281049571315	1.3519714986487523	1
0.277586011778485	1.1018956416535732	-0.21719447397687006	1
-1.412824505052955	0.7785736012744005	-0.6742720815774406	1
-2.345938384377018	-1.2887491531342896	-0.7264883759204456	1
-1.8306512171005263	1.3277397092429808	-1.0512420780614355	1
-3.4593749147288104	0.5264326571523352	1.4724120681645743	1
-0.06676327297462255	-0.29601994282650296	-0.03284802899883649	1
0.3789062081729155	0.24929262158169438	-1.118096268229276	1
1.2396300759396244	0.5363259919524862	-0.485964506963042	1
-0.3636914638532557	-0.019295190250414783	-1.1188211499624925	1
-0.5658339440792408	-0.3254487265249842	-0.21786733077902334	1
0.37351500823148925	0.2371043277396728	1.062458001924898	1
-1.0215144658167539	-3.2550362959542363	-1.9946251253641125	1
-0.38409869704710947	-1.8745550671794964	0.33801318198272834	1
-0.05365886713747395	0.5744412576214851	0.22038315487066942	1
0.10032867366640967	-0.27592506555123136	1.242715651003509	1
0.516371927213029	0.2553960961659964	-0.513754921335285	1
-0.8067594504554297	0.5794153867415806	0.5417518946696348	1
0.6655674993448231	-1.192626493109414	1.0023073859504157	1
-0.4397522449150011	-0.04435652585770745	1.591089643290642	1
-1.491761466414057	0.8627027160631996	0.20103351881619388	1
-1.5404720068060689	-1.0297145223058497	-0.9247340176104868	1
0.09931271395771203	0.3916727081676737	-0.04075599090506636	1
-0.08756292416027092	0.001193070468012562	0.5449472992810698	1
1.1813068534844642	-0.37771039569618503	-2.284035047073795	1
0.3352962151103502	-4.120640958808981	0.7201952799868387	1
1.0981234724918547	0.052539723752307074	0.11046069172446699	1
-1.7297472510773362	0.28859012897437164	-0.595299297524595	1
-1.509814516002269	-2.6598035557724162	-2.759228672003806	1
-0.054353690733086546	-0.04047379879818795	0.20257007284374626	1
-2.234097084482196	-1.1907584708290404	-1.0578381821118044	1
-1.9835996629839843	-1.0644477037926012	-0.029666212508040524	1
0.05070572223865891	0.03978247298096687	1.2292932789131032	1
1.9590196782750022	-4.048835048549987	-0.6033454235738152	1
1.383127820589926	1.5306339934431712	-0.4486996050925459	1
-0.6045369162244751	-0.8584642396856246	-3.2939841608181455	1
-0.37900771208001194	0.2811922314617249	-0.33083953748895456	1
-1.4299535819798803	-1.1360834150374872	0.6851742317709336	1
-0.7649853974256572	-0.4121275096936949	0.7345954595672282	1
0.09068511578019157	-0.8409116131507447	0.5981712523280356	1
0.27160686250817373	-1.1372062351947185	-1.3503733693530007	1
-0.2674012714170742	-0.7677712408363921	0.7794145436436067	1
0.6776655032300617	0.1386915066287731	1.059035486162565	1
0.4302966446430363	1.659454540129264	1.2049875468121878	1
0.6448577524997962	-0.1082578783480655	0.07885717814560111	1
0.009162493520876015	-0.24817706174481535	0.017439018953800293	1
-0.08469851571104423	0.37392378080651806	-0.6923453996965635	1
-0.5400451959787632	-0.6785946772779653	0.37356711252363917	1
-1.7409102466571031	-0.3453628435795004	-0.7533856276718695	1
0.1793443868921172	-0.1940059046469688	-1.3119364319429776	1
-0.15831934652146298	-0.2215135627505979	-0.3767902843271102	1
1.327518145744717	1.2061552300096212	0.5907295522326974	1
-0.03688276523848388	1.337299382463778	-0.8561585327113822	1
0.571880088989709	-0.56819625611919	-1.736112655841037	1
0.015145224155997323	0.11947474110339645	-0.0724013925095084	1
0.36856510474394194	1.2202942044835738	0.8680838186533832	1
-0.7267846283323837	-0.35231550588283234	0.4464996514976133	1
0.049343506022907435	-0.4982799103345737	-0.2724731389362026	1
-0.41636872572817296	0.24588435266495978	0.42019194204081023	1
-0.27763701161331394	-0.8390297940880966	0.2880879302066104	1
-0.33764283501497444	-1.16261790511224	0.23344752963590737	1
0.2847708545538226	-0.1295147413947728	0.5967338073885712	1
-1.3311756717701826	-0.7877314370554308	0.5327111471340278	1
1.7145738521374432	0.377007388357382	-0.033475912616169584	1
0.0464373772755166	0.2567543076642136	-0.026406012342897064	1
2.3072130988390356	0.11441438708159372	0.6232875509284767	1
-0.4612145173089106	-1.0541969629473285	0.7294350728245177	1
0.6679695576633156	0.818457018158968	0.7662613522685722	1
-0.3611352305840127	0.3159153122608135	-0.11220627020703763	1
-0.861688156404429	-1.3240275523064973	1.0377896579977672	1
0.07093200123437646	2.539024395728925	-0.8008367264819725	1
-0.7299155307807357	0.04087023717977316	0.513717009077486	1
0.35541010260743144	1.3778231930969638	-0.0559587763566856	1
1.6019768551514428	0.44545225825241686	1.514959262213061	1
-0.02049969207654679	-1.1033726696639126	0.5170280526530872	1
-2.5556819069727608	1.7286997951274823	1.1388407292430975	1
0.25190634949652213	1.5253648907779975	-0.9983141307138852	1
0.39599510957241546	0.7844996054294385	-0.10626890027385069	1
2.8825174971710323	0.2507963741005538	3.2992361732910154	1
0.6459341875581336	0.25621393446129487	-0.4333875075713916	1
1.0115569534963476	0.0384636045347609	0.08512066230690045	1
0.48248538446889255	-0.12202313697163035	-0.30934892116773527	1
0.8467450349993045	-0.03950154077990957	-0.35462962896692596	1
-0.7284487960771762	-0.27342029889186803	0.5087572810304689	1
-2.7100104380465915	-0.4835458540980782	0.7306330831016269	1
-1.7041403698988944	1.1793981125412918	0.49689393758520456	1
-1.266331390437183	-0.5072467281897954	2.1832297981444087	1
-0.9825076827245253	0.5234091454109747	-0.08417272324336324	1
-0.48081325278468307	0.826237636861192	0.18216235776442258	1
1.3157088547198645	1.5911613749202889	-0.29140157793006705	1
-2.6007293536061846	-0.9786551820145717	1.237321043579785	1
-0.31486989519041597	0.9531277485716316	-0.08782981035796109	1
0.06476222964056785	0.9965694451530768	-0.7435023615227483	1
0.7295734798531672	-0.0889226626853761	0.4756446555729554	1
-0.41930182734531796	0.909305901902995	1.6550990530102996	1
2.157199359038086	-0.938582526246037	1.2896219971597964	1
-0.16276339604913295	0.5131288740919092	0.7975614494024705	1
1.9235448262582175	-0.30076535601741516	-1.1434367524502247	1
0.041088936343592626	-0.535222162618209	-0.05874993552409872	1
0.8946186677232348	0.3883196567851745	0.2629247348023311	1
-2.4082979933395205	0.1128510356331946	-0.5937168185689071	1
0.03290095550330298	0.16749458858345367	-0.4490374027256835	1
-0.5391459904734244	0.8962635122065049	-0.4465833614064447	1
0.9281356772636804	0.10148471531459305	0.4196129141831684	1
-0.008014837604669737	-1.8674706605656561	0.39229293837467966	1
