-0.24266393049357943	0.6609129924490953	-0.22589458872972407	1
-0.5106634489735615	0.0876905176436139	0.5421354745578962	1
-0.15455384698836072	0.05395860601126186	0.05626238312987484	1
0.12596088895004298	0.32353294645129776	-0.022931287522823574	1
-0.6656022154260529	-0.006879769831792955	-1.3749774137692956	1
-0.06922729117227883	0.3951049129457927	0.08957942542227519	1
0.20809967591283393	0.248469662268365	-0.03933509302805753	1
-0.14420500288479526	-0.01804184851080663	-0.47963090713591994	1
0.31719387367652135	0.541115587829974	1.4927675357752521	1
-0.13130943261930642	-0.07049420937465528	0.26836052851678405	1
-0.42186242899120113	-0.24515556152665197	-0.23104493794140357	1
-0.04229722557436888	-0.42880873183942386	-0.032927885157774006	1
-0.33741858311926537	-0.4100378699751449	0.21626877572030317	1
1.1286761137616983	1.2094305566732628	-0.07384230509251712	1
-0.036466763407214685	-0.38982231924418936	0.22107668173316466	1
0.36779990657861344	0.2951763214240839	0.29058395091478634	1
-0.0026816632739282724	-0.9574763344041354	0.07449686017617661	1
-0.11105819049869152	-0.48047815879643985	-0.1962279669648194	1
-0.22943888064332124	-0.09258796180257045	-0.6703365497105471	1
-0.5050112269054156	-0.12279678784047474	-0.6897927338051497	1
-0.12276284459395015	-0.07968436743604233	-0.17902616622383305	1
0.26870282142919455	-0.4380476827205287	0.24690916688046122	1
0.5181011178983173	0.6101392421993486	0.27411095557977094	1
-0.29068349846956254	-0.19840888337521587	-0.07757613721731521	1
0.08578958358788562	-0.030863194349721852	-0.5707753130745079	1
0.3990212151075446	-0.09981511618793855	-1.4245795067712652	1
0.3003770006572595	0.17032390726033578	0.03763218183358924	1
0.08904971784032097	0.32323656941753826	-0.16984207240531207	1
-0.2971970308165037	-0.5826541759739255	0.680784207482029	1
0.1992937015318605	-0.39239757362282907	-0.059568023116654725	1
-0.37339944191303953	-0.08888653873300707	0.12166402142149439	1
0.44228400151951686	-0.5726225727150691	-0.21008835753210614	1
0.9183534360387415	-0.299985760876291	-0.22632331136184772	1
0.047644360842392514	-0.41589701780679955	-0.5589086353579023	1
0.25315182013703735	-0.6822132458041132	-0.7277964069184972	1
-0.5890697118487472	0.5815320944166283	0.1233684072571877	1
-0.5129875463841332	-0.439884507539816	0.3082198825656014	1
-0.9929034065545514	-0.3766346780449591	-0.13947023336926614	1
-0.17052040907762164	0.2843262142950167	-0.514776286175116	1
-0.022863413505800102	0.2784939466704224	-0.2696558776837829	1
0.29793089553922114	0.23505699622593285	0.22408533602486902	1
0.3317125270804025	-0.8602977246481208	0.23488983907745328	1
0.7424594192162512	0.2521259914383008	-0.027837568784741498	1
-0.7492333873919107	0.5233654988081192	0.19824259174910705	1
-0.17657925832517082	-0.29454702044304126	0.3933755666671147	1
0.36835836136857825	0.09764882834237208	1.4778769407435504	1
-0.06988812713940691	-0.5183125101437172	0.38264268544269037	1
0.13050654351344557	0.18371425798183635	-0.20330622358231729	1
1.0369934192452637	-0.4167591680160092	-0.5603973888190568	1
1.0022448853698753	0.931484988250736	0.047143712449628596	1
-0.9771099157940001	0.07789274714004897	0.21202887697659717	1
0.4615576341035919	-0.488388056778186	0.2702107058896813	1
0.6241914062724035	-0.14700445969177	0.24044782217755706	1
0.15217054010059625	0.03331728862349224	0.07798354561756717	1
0.2999205979179367	0.7435615365209818	-0.013059836716596298	1
-0.3354186887934346	-0.2879909779028647	0.32789407929202624	1
2.0217700273730315	-0.0636569868295353	-0.023358797486637384	1
-0.46755667616650065	-0.016126367725626988	-0.26468077984989047	1
0.31515017039572585	1.1094310539658794	0.1693496200055931	1
-0.5589224096188371	-0.23564887236957419	-0.22204622571310761	1
-0.21840528300295164	-0.03378118401400074	5.82310997041968e-05	1
0.3210003415709463	0.3789538875691263	-1.2093154773611166	1
0.8735527981351624	1.450437336018287	-0.44522614802959093	1
-0.11826199151829507	-0.32886699753034315	-0.2261423185014858	1
0.3643289188458042	-0.18012429444573635	-0.17275961885493651	1
-0.12504993258271557	0.011079866852331755	0.09718081217805061	1
-0.023549983456071084	0.12533817404090175	0.07473626341997636	1
0.4921079435437581	0.22589604453868684	0.2337229080319058	1
0.5598485126704796	-0.7999018975957748	-0.029432402124652025	1
-0.3574544361333035	0.15545945643463352	-0.09804924905374623	1
-0.15087142018854294	-0.040816230292442204	0.25468447214116136	1
-0.6620078215614993	-0.33672966758768463	-0.9349139801210935	1
-0.7210805486024338	-0.5818255684377065	-0.9531428026457218	1
-0.4471972076309323	0.5526858788584277	1.4090105261642103	1
-0.41806810158690266	-1.0560055148337115	-2.363265844326216	1
0.24768421464567006	-0.010479185561375167	-0.2934672528307073	1
-0.10206446025432747	-1.053637617730729	-0.7045116931617741	1
-1.266795227601759	0.07598799736079717	-0.32391512849537124	1
-0.23584601163298413	-0.2299676726806784	-0.33695160192126916	1
0.2905706215946411	1.1830981455405802	-0.33635919902288497	1
0.40180857024444555	-0.053771340786910406	-0.07675375403959447	1
0.5615673902507904	0.38758610027527185	-0.6682701691916324	1
-0.7776343807660263	-0.4979051354102109	0.2434132964469	1
-0.9068436284423579	-0.4297909177034165	-0.8682011099810066	1
0.27960369418049924	0.6627272704303347	0.3001764591759137	1
-0.1972598435444039	0.37090990916295297	-0.046627698218087855	1
-0.012365252680875351	0.10755531541393529	-0.5171976700207092	1
-0.08223236538563418	-0.023365831671743657	0.05605797278073997	1
0.22456898391578128	-0.7042591403916765	0.4390272913384789	1
-0.42109817670491795	-0.44669270446977327	0.04485707318709044	1
0.3008332642625254	-0.030398605892466717	-0.33101966566478364	1
-0.5923132905648292	-0.46648156409455155	0.658524260234821	1
0.21667333795031912	-0.11069291567639221	0.3399406194569038	1
-0.17450018787614724	0.20189909288137287	-0.48193527110695605	1
0.09161775395459922	-0.19201385838889076	-0.859772154262326	1
-0.30075524247817714	0.25971267751892924	0.13764356562276145	1
-0.0501924203148077	-0.26099169449836107	1.6404445591371175	1
0.2472694400267907	-0.3016938443123259	0.8000654258083283	1
-0.1843188224328118	-0.4015803963854398	0.6448041821842354	1
-1.1900964877840545	-0.5686590225226585	-0.1477046100227163	1
-0.014870919591743305	-0.12415271987754148	-0.14767500088845814	1
-0.2598404978741735	0.11538871542713088	-0.013495685158173724	1
-0.6343152061699473	-0.3545446823771432	0.24440596945796697	1
-0.11187761877593974	0.07389110402187982	0.0009470444826745679	1
0.10421063727933357	0.16848514328666514	-0.2317572641647841	1
-0.5094700488130663	-0.7501973144039186	0.5236259069433656	1
-0.3011994732108595	-0.2684323513525251	-0.401344933584714	1
-1.1189471860438167	0.141106111033759	-0.8042710676703921	1
0.31194960776166586	-0.9752419177400778	-0.3064938312920465	1
-0.32130761806901503	0.058688486488506955	0.22349218712433389	1
0.5220123161294982	0.3534209769570659	0.13013894330997702	1
0.6397551538808071	0.6226472172306925	-0.10524035800547267	1
0.2887383825562576	-0.29713102262557245	0.07709827097983112	1
0.25096364766021756	0.39997112616382074	-0.666791882203902	1
-0.06935564040906009	-0.8381785284866857	-0.2639222449788416	1
-0.2006351043616927	-0.6121666568417212	-0.5714028196754143	1
0.051202109002523116	0.41872791822948796	0.23286390376469027	1
-0.3764356036043435	-0.6862006773539192	-0.8048338257696585	1
0.31167133555155113	0.07884065284446787	0.7116883033380209	1
-0.10007075646294186	0.5922293930701791	0.5506860827767803	1
-0.5388690371580357	-0.6979866352885332	0.73203121995401	1
-0.3259044216322995	-0.04141569590587724	-0.05167997288294651	1
-0.27652314817321394	0.14532458804720344	-0.7017236120860899	1
0.8359408403214059	0.919904911864003	-0.4922505628675286	1
-0.13465630201392134	0.04638217705070677	-0.07293412852509579	1
0.02995357850243463	0.31215761925547175	-0.07069828053567628	1
0.017328772077679726	0.5479070653675983	0.864997405930664	1
-0.4110635559628583	0.7437106374666566	1.3129528106651855	1
-0.03980970788537161	-0.050294250765689934	0.37712918182682803	1
-0.07073959449287781	1.10030151269999	-1.0713405548831787	1
-0.6080851136984138	-0.22680245619933834	0.44910162199435816	1
-1.844111943710262	0.23207318457752876	-0.8303494106909719	1
-0.12948234359307492	-0.5690256111557874	-0.5746759237599693	1
0.29542673705705436	0.2069799221576697	0.2675443691867082	1
-0.03378073601152036	0.03105594889129262	-0.11563496668992185	1
0.663492209372021	-0.23206287027149147	-0.5540412068262344	1
-0.378813625451567	-0.6016402426800757	0.1920829000860493	1
-0.22635628554639983	0.47151254401841114	-0.12979428215288574	1
-0.3423484939619869	-0.4636996395671938	0.3705209753061168	1
-0.4149117293549442	-0.2071576407713883	0.43679407358593203	1
-0.06330435741873541	-0.010001500268745892	0.20748481103039176	1
0.11587246835040163	0.1750761711335536	-0.06603928051176075	1
-0.2885635148808225	0.3105138503642122	0.5486154521881184	1
-0.5772034209676941	-0.5665130956413573	-0.11964321645287523	1
0.005989532546806573	0.7678883730759867	0.1782490007882832	1
-0.034201753283569954	0.08162277843634887	0.28846117087928425	1
0.6389654542768823	0.5032355634983893	-0.19141937256351657	1
-0.12386498824508076	-0.016742743563315392	-0.8462352525375206	1
0.6237279984397056	-0.7897683226225626	0.8495367392826071	1
0.38785750430146865	-0.2051375138576824	0.9031591948363219	1
-0.8012256061481775	-0.8579230899595779	-0.1368545506435856	1
0.1934651728086807	0.031115448813780807	0.0835503572323917	1
0.5023310367747033	0.8388458663789166	0.9087740870359329	1
0.2861422625191531	-0.2941044041119516	-0.6588263255255311	1
0.6993478750701675	-0.13409450400643588	-1.4321602865610916	1
0.20191280754868268	-0.08298903072691834	1.502661075224919	1
-0.4785181709914895	-0.3670086313117441	0.19358308125442195	1
-0.1305323037248425	0.4793263539950072	-0.29727560234748274	1
-0.12922233269268696	0.057700858776176873	0.22662887202979817	1
-0.1256218403108941	0.16446137734336222	-0.49748386173991227	1
-0.6405310313390049	0.6807302143127502	0.08892915365537205	1
-0.42598515070384885	-0.4186968563838406	1.3138965549412716	1
0.9783412058184678	0.8750275462315404	1.7713907173857848	1
0.8155540041246273	1.5062278466345016	0.495515123121779	1
-0.3701755298908418	0.43120563980227816	0.30530138663898754	1
0.23917768378670282	0.1151505784637951	-0.8024722812694033	1
-0.021736425287008764	-0.08568008156207899	1.1960662093157561	1
0.5838363823453161	0.2614502981783586	0.09722590678659011	1
-0.4051052375833866	-1.0139945965608432	-0.10684896357569834	1
-0.08869786243354673	0.3102107204713349	0.3683399350587808	1
0.17223195769831331	0.335724910119847	-0.18789610961151906	1
0.45982011846920806	0.16038939865203083	0.057382780360100284	1
0.23934423628829948	-0.33532284945645435	0.2838952734356713	1
0.22412601999894935	-0.2273837040232033	-0.28646596570565686	1
0.6416615734183952	2.568065880619367	-0.36516790809652294	1
0.28980956210701386	0.2862246216488254	0.23123032548408992	1
-0.09022140773567187	0.018881275306789347	0.050869338266225625	1
0.11949053769125602	0.3203361437426221	-0.06886723815863524	1
-0.18425042305290926	0.7226722818627208	-0.7832433807276866	1
-0.3332976526870514	-0.49414298556773006	0.042476996610526424	1
-0.6881036441669369	0.7027367126924753	-0.9720431835221154	1
0.32631053343832395	-0.38077797215350534	-0.4042791917074873	1
1.5546426381503622	-0.6766746189819729	-0.23626002819431072	1
0.2606364306371663	0.018706994011684203	0.17940108290165466	1
-0.051961774268178475	-0.2761500540524477	-0.2181866709908407	1
0.06829798369004154	-0.25002220058737346	0.3766754931527124	1
-0.22747047747813037	0.2840760806572871	0.3692573970017867	1
-0.05581633562011839	-0.36312430838635795	0.47768177434224496	1
-0.16222228918319484	-0.10361218276086384	0.3879871429439367	1
-0.07950745681415768	0.35530462630553683	-0.17292361447575072	1
-0.08926042863190715	-0.8308313406272902	-0.8175017476055529	1
0.5980161773464473	-0.28761361251567524	-0.34168856339988224	1
0.33705022842565824	-0.22207078719826312	-0.08114282477315667	1
0.12878926635323906	0.5632356450325425	-0.23792755110707586	1
-0.03940838822441142	0.04770229313681526	0.608529774767218	1
0.07871462346725003	-0.9165171229984529	0.3049072782550712	1
0.5136393952789577	0.011756746167231732	0.7673185956322379	1
0.39315068507099116	-0.8279129459076233	0.5494152917330319	1
0.474312442033431	-0.8401846152655598	-0.4418288863790941	1
-0.02113373392276617	0.04760111067075039	0.46748092247494394	1
1.4440220263953532	-0.2269128781669684	0.3761059354690292	1
-0.08362947986819305	0.16332997027861096	0.01165976578056901	1
0.2934846983429322	0.19914902560804737	0.15431181747681505	1
0.1209978345677906	-0.5117946516646651	-0.41467694431864116	1
0.51747185995235	-0.3333442511638374	0.4162503752695718	1
0.5005857483917387	0.008359929438288357	-0.17576088859153677	1
-0.44759005593000056	-0.8170508616554425	0.5594964328425588	1
-0.6297897313305182	-0.4679412522336643	-0.5218611663442224	1
0.6844871668694615	0.11626492648611357	-0.24678571198597937	1
0.06926890782864187	-0.2331798122494826	-0.24936052191251554	1
-0.2844536452223564	0.17499880549985491	-0.2702838301782402	1
0.21236325915943965	0.5905297653649958	0.44383526718962996	1
-0.06864860509645232	0.007426337507148075	-0.2756769264244142	1
-1.3104584791924871	0.818971738470636	1.452005787313434	1
-0.047097233653351715	0.5467058428902586	-0.5335298522784235	1
-0.09983744038887744	0.0053148620542361365	0.27299524391856195	1
1.2438114606697581	-0.2837169263716756	0.26671739668098915	1
0.10904585447550784	-0.6210899131739076	-0.29122812559327044	1
-0.14898912042835538	-0.7238399804129837	-0.6035922327571928	1
-0.026679126645220885	-0.16422294551226096	0.12945825920179574	1
-0.7507724201026263	-0.7858453477017501	0.7651113552665013	1
-0.3933557819022735	0.38757257499611164	0.165319688008923	1
0.37675032851371343	0.15420247990400837	-0.16702957652028466	1
-0.11790064490202253	1.0704083729565708	-0.14402873706116268	1
-0.24810401412897903	-0.21033868221090357	-0.19397552194921852	1
0.37275254009954817	0.2895950571524384	-0.01365794390798033	1
-0.19335812464427918	0.7341943300505842	-0.20716581403170378	1
-0.560119103549891	-0.6902332678195207	-0.13047098985837033	1
-0.10309881328981232	0.34652349235874735	-0.32352878083203507	1
0.14640765327987687	0.337774495679005	-0.2814135930194853	1
0.27095491817216877	0.7124028252659551	1.4822654907009258	1
-0.24041860078873603	-0.22845070016505928	0.09678672731962107	1
0.7783744200399063	0.18907795187226312	0.8226504307558704	1
-0.2300356980102818	-0.2137082484474944	-0.11709254177176505	1
-0.47391879494506195	-0.3064639916570576	-0.3073619093665538	1
-0.02862944681997143	-0.5669487706716669	0.4765937249508649	1
0.09750319848398312	0.17748561174732824	-0.5700875976359367	1
-0.3073671657537409	0.5582315175181459	-0.46856505714352287	1
0.2078536870211044	0.3102253009206765	-0.11775220488093383	1
1.011544811173589	-0.7541806303770414	-1.44697637658011	1
0.6069040314639669	0.08051748448391978	0.40743637234440966	1
-0.10005609653692532	-0.580631364913836	0.19183295711526271	1
-0.24383174448058106	0.13609817895072177	0.058338439744071185	1
0.18589960672783967	-0.39497909849826496	-0.30642229401400817	1
0.3318294154789217	0.8724740438605916	-0.4395929363944123	1
0.11037557006194747	0.886373864790058	0.747799806952667	1
-0.0448366800731169	0.06880788198293941	0.038679832491623704	1
-0.13413718992000284	0.9730247482800285	-1.2742002151044032	1
0.4968320436168904	-0.24226972200728747	0.09347270068956716	1
0.87109316639917	-0.17931247589826488	1.0858111566895754	1
0.004240316600395335	-0.6227139445885258	-0.1322495011627935	1
-0.3788228876092028	-0.623336652676008	-1.4251525366819897	1
0.12448483027370202	0.39144526803653173	-0.01291856559749254	1
0.7213073892681394	0.5401997605336988	0.6133712247564372	1
-0.35631837423752355	0.07510831567863657	-0.7216922967487981	1
-0.5118101285271336	-0.2955223846159373	0.41222227404623724	1
-0.3943969489542666	-0.2649520295301582	0.7914783438540044	1
0.11603730793926542	0.7620394755666803	-0.13845424347153495	1
0.51792657126984	0.016046909128838605	-1.331295716376477	1
-0.3296530601346714	0.8694890693722008	0.42008731729989096	1
0.954977389415902	-0.01718227052722559	-0.9830796196262095	1
-0.46450777300984986	-0.05669252354353719	-0.6769153102588387	1
0.10862973938166771	0.16235275293675633	-0.8356450363380061	1
-0.10557012352774732	0.6586270566080727	-0.1877232601892572	1
0.033647579205495846	0.060305668914822336	-0.12294216167706415	1
-1.7014347301152037	-2.4946792624627268	-0.763607529121011	1
1.0102019550058043	1.9675162388114642	1.0377738919020172	1
-0.8561617800685534	-0.32949495542386587	-0.048696712763251035	1
0.43835018168994155	0.5201571502718262	0.3181270923804587	1
0.04902151063346836	-0.3310362210390132	0.14990323818323187	1
0.6859681472353466	0.2730322165073532	0.22585401212574194	1
-0.141695802810856	-0.05339584032888513	0.08530999426568178	1
-0.5882445352188094	0.6513320298333525	-0.5341004590656526	1
0.7877675671488565	-0.46858449934108254	-0.45876323888577636	1
0.2637179074361341	-0.3800584715639348	-0.030215095839094278	1
0.022812962108648947	0.2620603137378562	-0.16794508766110455	1
-0.47088180833730175	0.2133527299548556	0.8114885993472071	1
0.5051671927644102	0.44687326484873086	-0.14156708987605898	1
0.6258789588833662	0.5056966938829537	0.012541172358540955	1
0.06858545572138243	0.0127822065922862	-0.3644515865998589	1
0.09295705358458138	-0.09796895058315575	0.20421620404538265	1
-0.3720735874094723	-0.13823944581139289	-0.3914804219445024	1
-0.46583719549085667	1.4639858870762217	-0.01642319362625863	1
-0.4365212194841688	-0.4626811896723402	-0.3098984421082361	1
0.5502670483660318	1.8830833866413608	1.0150254721917449	1
-0.13595068067948143	0.613172233457511	0.4048666841613375	1
-0.38038270091837917	0.45681532954558673	-0.619259835835032	1
-0.3920383015645219	0.26108761978743655	0.2460455626245406	1
0.30664112466831267	0.1786789904606627	0.5303428966083094	1
-0.1039930862664797	0.00716634569960043	-0.9654121570008798	1
0.2524819968814968	0.20288726190159112	-0.7065970508047077	1
-0.01030022746289949	-0.26919475036440665	-0.2572142862134532	1
0.3126417518808688	0.007939477497011896	-1.2112010146381733	1
-0.2302790067625743	0.012413891234208416	-0.3189443664767538	1
0.055922575424811966	0.013114207071642006	0.07053709332817118	1
0.1946629579276174	0.02970631738802814	-0.3908553902282454	1
0.11214562479355869	-0.5216477672178711	-0.1371229361921498	1
-0.8910051219437523	0.036985790361225575	0.05732902512267673	1
-0.13902850479348963	0.29980785861558706	-0.43166512745624336	1
0.3723236317342404	0.2789618164247308	0.5469653893817065	1
0.2100228782843642	-0.04733714683109793	-0.5751143220893401	1
0.3205806581904544	-0.14162046275261667	0.24536914945326596	1
0.5907097291840305	-0.26461432772761995	0.77323045332876	1
0.10150422221627711	-0.23910425234217206	0.3935270635093022	1
-0.23797651084534188	0.05267636134112197	-0.08186641603417488	1
0.1831493862478561	-0.017935757558662654	0.2261535628697252	1
-0.1350857135388854	-0.31843471383373423	-0.2824112358246117	1
0.1019555071997551	0.14729815842263225	0.2838161323620936	1
0.31201281119970664	0.03730047315823691	-0.6820230903780881	1
0.08685466797854051	0.06598660548687825	0.5882514076869376	1
-0.289536078218854	0.3251677018175504	0.6568284684528531	1
0.8863770485192718	0.5190746969333642	-0.10483268045931064	1
-0.9712737485818601	0.19146289212725456	0.18413549449777566	1
-0.11205131627039565	0.029709783315525956	-0.13056130121954715	1
0.6385826817846284	-0.3158089699091115	-1.020686440109752	1
-0.3047101060795711	-0.2513321468234689	0.2802412928077099	1
-0.0335672152665258	0.29819167274606134	-0.2617462560454087	1
-0.34183190465992436	-0.34742182243310304	0.30435169824943914	1
0.43404826896813475	-0.5407280533002341	0.3481162431454127	1
-0.13040058116787354	-0.9818977508394049	0.1466583296353695	1
-0.433491694896959	0.7079300963648956	-0.1159424927495841	1
0.08404023446057765	0.10750497209067657	0.04480166492444997	1
-0.25030602548766345	1.0755642994111692	-0.050842292020979035	1
0.2072805642188198	0.38012430673456726	0.15518655996842656	1
0.7200001304976686	0.6198970329582563	-0.43909775402030266	1
-0.11496561212495465	-0.522658442244115	0.2978426846071758	1
0.5950201390487918	0.24193371861430532	-0.4033564368759197	1
0.72432982863357	0.4043096321376638	1.0049865071928685	1
-0.6304682427695049	0.13715112628738163	0.02357714194201056	1
-0.3088965863226741	-0.12905876432152724	-0.09802806074526456	1
0.4344106137838056	2.0639657830208984	-0.34929650827332825	1
-0.1679876704070424	-1.0451462542271919	-0.1878245553368549	1
0.13809211266808916	-0.002019562110376822	0.2196116532108721	1
-0.2113507317816199	-0.41587554627050594	-0.9203491148512766	1
0.18967001261814373	0.3927286651371304	-0.32246479033091063	1
0.20592385669962057	0.11460747394678095	0.1621973784038785	1
-0.6701334813717644	-0.5984891289243531	1.6032352991714545	1
0.7166421039377681	0.2960351407303473	-0.3495593035587421	1
-0.13865466476038496	-0.41112788112193427	0.4381794407126934	1
0.3949225342820531	-0.039987215923944046	0.0677590481251161	1
0.16027093304274068	0.06301000265289095	-0.36246384038850027	1
0.2352935531613356	0.7412673423970522	0.2835715385180568	1
-0.08687433606486367	0.9172812918046429	-0.07848233220769789	1
0.32149208163854764	0.2883653034413529	0.1164586238133559	1
-0.08767657064970942	-0.17561417409617325	0.062027055674366685	1
-0.12656974979913418	-0.662345572448368	1.0145860121821362	1
0.06017423035417395	-0.44592259168002957	-0.4160018045463154	1
-0.5085170384591585	-0.023741467636379944	-0.020614105442893115	1
0.25184328051181176	-0.14391000435560458	0.4321358220576303	1
0.3228140596330089	0.05717563733698317	0.12355219271673659	1
-0.8760511300053955	0.666801637024417	0.5551311214888508	1
-0.05670632055444705	1.7605121681834914	0.2328351279826738	1
0.4100687352089196	-0.8076591371699757	0.698720487798645	1
-0.23310523205724532	0.11837085076970076	-0.14912539598151708	1
-0.41655097218230747	-0.07463497485241888	0.2847093092414771	1
0.0972135639484343	-0.46758053061140303	-1.025731240357416	1
0.14857839080968518	0.3629589650329278	-0.5850385361598028	1
0.3145191128055302	0.05653069619421542	-0.23564239174067253	1
-0.839120309756162	0.5431394523433801	-0.6608402285730085	1
0.5850851561860622	-0.565975715543293	0.23625059293320624	1
0.3464859205808653	0.8181450935486796	-1.5195486588506837	1
-0.12766801219263407	-0.009872404201029021	0.8494401594324522	1
0.24228151105187629	-0.004890536932750945	0.2230488030544984	1
-0.35767992973463963	0.519447871132922	-0.2979188753081648	1
-0.054530632054734705	0.32039204934372767	-0.5217894561246111	1
0.08624229546422751	0.12481537257529866	-0.46527961369071225	1
0.40983545788441234	0.3450592654362405	0.056264645953570155	1
0.4573742565201605	-0.774228174392959	-1.4417816743863194	1
0.9735998804908439	-0.3980684595133833	0.7451981884643099	1
-1.1857262581839836	0.7741265795194221	0.820627836604659	1
0.21818426047167236	-0.47425898604750505	0.19115888908460604	1
0.16136864878343746	-0.4258803708499634	0.4089187072636575	1
0.27468101680143736	0.09713248805036699	-0.17318485760032248	1
0.17023075342866287	-0.1338979464614495	-0.005574571980344665	1
-0.34204955915748786	-0.29452932735432114	-1.0990506074814368	1
-0.8914600514279827	0.7483146744497224	0.18634545394317623	1
0.03846850391593414	0.1433898075810916	0.6556548146385013	1
0.26024839531799565	-0.1624019836396806	0.03507620082626311	1
0.31047995138877016	-0.8938534368556147	0.29087755045303276	1
0.4426170072691477	-0.09847400191841504	-0.37893621194434346	1
-0.4194448489028637	0.08895722099296158	-0.02994566826225583	1
-0.4922875475396379	-0.22350917790896288	-0.11901199943090475	1
0.8470536819639611	-0.19360938893595303	-0.8068293015944966	1
0.1308721542714016	-0.1313328295228533	0.5144552630330254	1
0.0395546453966614	0.16485518432177004	0.9107969327517615	1
0.693880848995985	-0.39116231309079685	-0.15420675918210172	1
0.19318958167450212	-0.7128638768639104	-0.88449803809943	1
0.37665168421089257	0.010658982030114084	0.12881510418434086	1
0.04605926577347757	0.1023690874855314	-0.7650570044805454	1
-0.5050669887678318	0.22063582330858791	0.23665438289755164	1
-0.06805669959232072	0.5686551204241637	-0.44574724765456303	1
-0.08004776565256631	0.10202257592235162	0.08380776014376475	1
0.13035056229775135	-0.23047708190075675	0.09618607250536157	1
-0.0861848169753778	-0.4842423818758303	1.510204637570298	1
0.046895274436907844	0.31218626033235547	-0.02283605259692963	1
0.5279160589970964	0.19564111919830432	-0.8934090514871332	1
0.23463230978851357	-0.1361339664539662	-0.08631795056593294	1
-0.4530956361841719	-0.1993819410769497	-0.059556010592915376	1
-0.008241430563272761	0.2784587549949679	0.14767037827712792	1
0.3579145235568499	-0.9521481436704489	0.47255107096627363	1
0.02263382682576498	0.13733093872600338	-0.010272619999746846	1
0.22568635523522948	-1.3207496518249235	-0.4731446384596911	1
-0.2891236232811283	-0.31897417545026385	-0.2506888539614677	1
0.11294004848858483	1.2486786893384485	-0.2963200367225664	1
-0.030328128894739133	-0.29783505482643896	0.5361717021432567	1
-0.30513544249025953	-0.651450497035948	-0.834150525894791	1
-0.4276668239703663	0.8252720192735181	-0.1242590076317491	1
-0.08734277509551286	1.0194305199030604	0.04586827072974986	1
0.6104512726757058	-0.07792122498549088	-0.7464539985839935	1
0.411553147912352	-0.10704551394993767	0.17122745450424753	1
-0.17563447373908816	0.0349852587706141	0.08706610531186547	1
-0.35169653694028513	-0.4953903826387308	-0.30241806102681285	1
-0.01154410010705244	1.0502058568141028	-1.154053149399371	1
0.7896435831784115	0.9385528639400537	0.4282074440390274	1
0.45183663172714617	-0.2171040377576993	0.19713307390802579	1
-0.02412665315122437	-0.3559518682733863	0.12009394512283673	1
0.5369345674399497	0.8139245314353911	0.6256418517581075	1
-0.9741075889603332	0.4495868275609413	0.7698054308546555	1
0.002650937032281361	-0.4535372151229194	-0.03340304501554749	1
-0.3517783836248727	-0.7340762674141741	-0.5023930336204642	1
0.7320486959745595	0.007515619072209787	-0.31161682664118406	1
0.5090458702171575	-0.23872869587994888	-0.1709881708912487	1
1.025737560061199	-0.24480796789994733	-0.01533674118608726	1
-0.16713326761910174	-0.11866342826646889	-0.05910895773147864	1
-0.15220490688542235	-0.3100293261472652	-0.3462869883634382	1
0.20911280174892416	1.0784229838300863	0.2572560677759864	1
-0.24556666333410201	0.003713768016540139	-0.11490233452787076	1
0.08627279302702798	0.7830100116422788	-0.21090443464215114	1
0.028781440308648827	0.2879956562999917	0.7051809879129274	1
-0.5938294473459823	-0.05530894822474608	0.011397684608855707	1
-0.226367034710962	0.6353966534123591	0.16868371740891053	1
-0.7505197388578705	0.37467146347163843	0.7372578918378673	1
0.43139494493147723	0.19790550054096873	0.08334421241627396	1
0.5855552951502155	0.35549475485267323	0.0796764408349957	1
0.3138197543768257	0.5618629360888675	0.38869997241456367	1
0.004606886052484289	0.33389977033122525	0.01876617428127853	1
-0.061781299864449496	-0.07760695692107185	-0.35955984920561407	1
0.1126616505903782	0.2527846527401639	0.06761496426808913	1
-0.6356536202848313	0.11489867877015605	-0.1726101312121817	1
0.07363803938086887	-0.38986785381603134	1.2610114175166083	1
-0.4456391028799454	-0.8104809971630075	0.05139879893391095	1
-0.5240295270453669	0.06356274979106565	-0.11519543578045725	1
-0.3193992705476993	0.9920059886824527	-0.11494587538047558	1
0.16240435532694542	0.15522148886128614	0.45307000082504056	1
-0.6126309337894517	0.12250551672444925	-1.2131849619391333	1
0.6338023536232738	0.020282726516620133	0.10858035140743792	1
0.51176038201918	-0.13526123473275545	-0.6758495181621409	1
0.34948826942681194	-0.4247902664509357	-0.16427992553854295	1
-0.2516637538592912	-0.5146269105729862	0.09808723622733855	1
-0.037905518039701484	0.458894411339211	0.1303927749908117	1
-0.3563808225321831	0.13726795836056851	0.09098636163312569	1
-0.07518530310958739	0.3699173935130916	-0.023265479818259893	1
-0.8055114848159277	0.10629907209364889	-0.2501137622877152	1
0.18405306421504453	0.0979999033904319	0.1856372069430194	1
-0.10111993268757381	-0.03313346350735386	0.1563806255156283	1
0.7724120419951451	-0.04185727449490013	0.0034699769770875273	1
0.24753698785345424	-0.22303721013058345	-0.19699254996847299	1
0.029472560171078216	0.016031671734226684	-0.2863409172580626	1
0.03534411724381363	0.07073069533005227	-0.12510309152827717	1
0.34410080115858305	-0.03278543841759133	-0.568734117345411	1
0.20047690796545567	0.06283897762093756	-0.8495839559089848	1
-0.3153444134782292	0.22864219967928653	0.39049817749297483	1
0.509011232111168	0.388533801586362	0.12459580621951358	1
-0.05638132894067073	0.13365856337711077	-0.20033552612659983	1
-0.3593890215017089	0.29336824454082605	0.05781180031156116	1
0.7975981568226321	0.1861955125379238	1.0243668115438178	1
0.3964454443791601	1.2230125365711484	0.9829601051711022	1
0.7888852474590747	-0.9402925640304578	0.9681827240073337	1
-0.45156218654961455	-0.5638822907686145	-0.11767147029160173	1
-0.16982848377993895	-0.0658433791272032	0.6909231585731541	1
-0.3664063499211823	-0.36751257907608553	-0.35726972172833604	1
-0.23210057992390673	-0.18359898993759413	0.0034911143064537296	1
-0.7548105432070937	1.0100623716794113	-0.30781605121208744	1
0.48837772766654797	-0.2197206048580203	0.17288632800910628	1
0.11438425072623988	-0.7198594307186659	-0.1654596335615399	1
0.16631232720845357	-0.11092934584150896	-0.07499355403893143	1
-0.8792004163364934	0.11136807376687076	-0.1550824034544287	1
-0.39613347060618137	-0.8074569740141164	-0.04580737218737088	1
-0.15455825528674416	-0.8573066899997968	-0.2664791146563093	1
-2.202081654214029	-0.9305114605397126	1.65075234164942	1
-0.04441502484876537	-0.3110919993050869	-0.20191159556788116	1
0.3427103138135524	-0.3791529795080636	-0.13313123715661737	1
0.20438436483470987	0.1350415583512202	0.342468488693073	1
-0.17512495332510797	0.13549726815238214	-0.4685680833250378	1
-0.09053592753872973	-0.02368102976614791	0.538277982339143	1
-0.061829616712541155	-0.3205645324449825	-0.03535318217362656	1
-0.2402513664049374	0.05055049629313035	-0.7891898545931352	1
0.019321756775212903	-0.24073627583251925	0.004553787804181439	1
-0.31213109284647333	0.08731809193989976	0.16768147924318114	1
0.34629298685106275	-0.6308998490503276	-0.31381187720888376	1
0.40504764371945623	0.6599556025667743	0.5773814621203402	1
0.49324187319019447	-0.12701463509927335	-0.007667426059369528	1
-0.19616920589689316	-0.011576956836511502	0.004957380344905957	1
0.49574432305879373	0.8017024382802436	0.8103598168844679	1
-0.6410116160348994	0.09081361130688682	-0.11289586080152475	1
-0.2370935562796433	-0.03714492581280535	0.3175730344433446	1
0.07407520087206171	0.2816998628955561	0.09235788666705567	1
-0.01389613840515913	-0.9612537453395558	0.16820913833777337	1
0.3392602093051112	-0.9857705899575179	0.5017964075047522	1
0.13667648608199337	-0.19577529769892069	-0.17214040474356648	1
0.47285170451066316	-0.3725463948991115	0.2090069485859825	1
-1.1913319456856528	0.024328495633723586	1.4172126106089964	1
-0.1621525898931574	0.8247070835856452	0.27875712785295303	1
-0.12218168505087586	-0.1791017721453868	1.531035913761982	1
-0.2624261038418675	-0.15094332319469653	-0.5837463497204731	1
-0.7540737734234128	-0.7127969777777079	-0.08027945443979947	1
-0.4502723330046189	-0.3825080471388846	0.1337561739529588	1
0.7049788666766661	0.40697450804832574	-0.00996502720015481	1
-0.29082806030371355	-0.09008010270540362	-0.36644225979236844	1
0.42032091971940094	0.11850987993968777	-0.061546814735804097	1
0.33452769219544864	-0.45106768827789845	-0.4988795718950959	1
-0.13119988089379578	-0.0004594330211131067	0.3851119173634047	1
0.23051173367509808	0.70875534626918	-0.7371715257381342	1
-0.7392314618411484	-0.4920948512944651	0.12446318871938875	1
0.008416606703546249	-0.699723064809042	-0.521046012962444	1
-0.013971766684501511	0.1920601947170118	-0.22751818816267264	1
0.3782688595049556	-0.5412397654452802	0.42929202959585566	1
0.5528979120420747	-0.7203789814870639	0.38552492884114103	1
-0.7579571877711383	0.2191481530689498	-0.6105420649277973	1
-0.11256144704747754	-0.31772654609048717	-0.2595835340899146	1
0.38023308251692167	-0.24841011645919195	-0.19662504001930023	1
1.467401440844548	-0.8013458403018561	0.44588865009381995	1
0.40999958884493526	-0.6027304641162724	-0.10120047918978645	1
0.615303719754793	-0.39260066909993374	0.6082837640531514	1
-0.5271180301330419	0.4574121213821527	-0.5287402326271422	1
-0.6138994256138789	0.375203872239455	-0.8806155968732986	1
-0.19628518741157386	-0.2771155365875227	0.17111248724046402	1
0.46776715222600246	-0.21677770170781419	-0.23557213688816145	1
0.08887816659024575	0.26882836207709665	0.13211103323235973	1
0.041108305403693514	-0.026779395053859362	-0.3630305414116943	1
1.271471991948543	-0.9429772781191501	-0.15662919855298843	1
-0.2877613122294279	1.3365911701400623	-0.5997242340421435	1
-0.6940471054605586	0.31596524139483456	-0.1869288794063971	1
0.39358945470322354	-0.3214623382615919	-0.4133674744361348	1
0.04045580143408701	-0.2853271798932397	0.7472008507489503	1
-0.1423092422259003	-0.7017195930564976	-0.03584018724228493	1
0.1628083034484447	0.20044503509730965	0.11800548426837239	1
0.08643509342045673	0.02904969034134633	0.15721800317801035	1
0.667561234344359	-0.2278398318535549	0.08845959776951016	1
0.3927375421185163	-0.4161185193284403	-0.32596599430537754	1
0.27232138678946316	0.10323259149430629	0.18063354245361066	1
-0.16679915049460928	0.6023412196274338	-0.777198958924593	1
0.1829517872464126	-0.2859504820436768	-0.44103093461624104	1
-0.010877182587665178	0.37980341464579154	-0.059577200663918285	1
-1.0022896898304665	-0.022130732202374742	-0.1930456149880899	1
1.4547755300338954	0.79943808861222	0.28263111961842297	1
-0.02218253095176212	0.3569947731833248	0.19840418443538546	1
-0.1470855355037673	0.34386849134037434	0.39887286677755757	1
0.359639579664614	0.038377071740130116	-0.3864829973673927	1
1.123657920632948	-0.22219696562594726	0.24455287009774124	1
0.5281364602125606	-0.22472218131825447	-0.703228365680935	1
0.536369751776326	-0.24023793013802675	0.4303385900599718	1
-0.0945931427921154	0.21319536455987267	0.14504416608409865	1
-0.43482199005764405	0.567180476720734	0.27837140659454007	1
-0.3032413973177757	-0.2840764014876025	0.0560396762206888	1
-0.21099063714030056	0.2551737474430684	1.0354163627206197	1
0.6131663422178139	-0.8820216240868967	-0.5958758852551324	1
0.3544139479847056	-0.5853382581230295	-0.4336779662161799	1
-0.03515814830170606	0.15456988946229683	-0.01217683691493207	1
-0.41507144388233963	-0.333867918584077	-0.4950512036056993	1
0.2237996585862228	-0.07623051153931858	-0.5110828407506044	1
-0.17798013713069344	0.1447764383196553	0.0008473481620450313	1
-0.3658160415123216	-0.16498386423861444	0.1456183916008883	1
-0.012275847455992361	0.03922720857369641	0.614521621269836	1
0.11502401576464395	0.24042936669955928	-0.12930169368471328	1
-0.4810561077796676	-0.10182018042239527	0.7799550566740712	1
-0.8247633710080163	0.5183915072767253	0.6184163249440976	1
0.4687283807808728	-0.2582239909690761	-0.14666283203032274	1
-0.09125436172254796	0.4189144879703904	-0.14862845900928373	1
-0.264630770374892	0.5290213314173398	0.40719822013577694	1
0.21856803405167263	0.19960953740911497	0.5883952649574604	1
0.4330432417737187	1.0562097049222103	-0.18557715300381603	1
-0.7719283278337413	1.100637818688181	0.8327957863589247	1
-0.4550505820416449	0.15892143015477073	-0.3157392500014305	1
-0.3871242194803597	-0.05178189367229615	-0.01987951448837974	1
0.4590248670567273	-0.7695702370135795	0.4399467339922344	1
0.5674395668793547	0.6047421236522459	-0.08935357276227504	1
0.3623759986198834	0.15534153071427986	0.7139268891626337	1
0.3520891037475534	0.569360498234612	-0.5999098564865752	1
0.5197005992005678	0.445367614367255	-0.14252285276755913	1
1.203379466458261	0.8309656400198994	-0.5075675050416548	1
-0.12843445035033255	0.08779372052318808	-0.6280986657332224	1
-0.7252604039283824	1.2496572209917114	0.11653459967879953	1
-1.0024636032422316	0.049009479642260524	-0.008331766057665281	1
0.15117098169676751	0.47907552861022024	0.7055612693485175	1
-0.10327840095274572	-0.6921870114014216	-0.056662317149196305	1
0.6513558122639737	0.24395031754700458	-0.8981845652428891	1
-0.14422259252946293	-0.35541134414826125	0.9092388266485925	1
0.019763550746889395	0.36829298533120836	0.44783350848480863	1
0.31819567816409106	-0.4291742524720014	0.257429286775572	1
0.2515990707222926	-0.11060288297271548	0.08357083789913332	1
0.5122517060200451	-0.09667500887877675	-0.21574013507430978	1
-0.8813032082273529	1.232641703702891	-0.3077508730626323	1
-0.2441810261462369	0.3467710743583188	-1.2431897558969296	1
-0.39452906806022925	-0.567553906853322	0.18132615367552793	1
-1.0197817252759216	0.3697719677980742	0.7749324772842888	1
-1.3124926194177804	0.10688807372351575	-0.25366024736889303	1
-0.3437114003884379	0.13513680472115122	-0.5072127841809889	1
1.2136944864713228	-0.6314758744009348	0.7911805603621789	1
-0.5573980856088855	0.328431786836787	0.167338101655161	1
0.8017821510971244	0.31766119695271766	0.14496754560702269	1
-0.05825017018009079	-0.398880204904568	-0.6366007099460362	1
0.06557221792979058	0.4343644053924434	0.3861532237259932	1
-0.5137885569832477	0.017837842590528865	0.31903347667858106	1
0.38709979730692307	-0.04203481774019552	-0.632281456140715	1
-0.2070738832887216	-0.20407169338194173	-0.2410583625231859	1
-0.18406248766117123	0.46402678585208734	0.08178180763387523	1
0.26328247749715145	-0.006104926447518215	-0.20098219613392473	1
0.20752855775783546	-0.3767979273274374	0.7792420979256759	1
1.166505351241899	-0.158858949781065	-0.402954478535487	1
0.7172866365077306	-0.12886068669808015	-0.01631799363351546	1
0.12621862923548635	-0.8948362093772793	0.2020486172640148	1
-0.7839572305509798	-0.4310682430220605	0.5150214414485965	1
-0.23776170353433204	-0.23712431272602894	-0.5769827214391526	1
0.0026492617208739916	-0.1385697815996266	-0.30808624562321374	1
-0.43856848835177803	-0.5879509448190375	-0.32122984991503467	1
-0.10009029039186484	0.4591666439475976	-0.04261444984180003	1
0.024428561916618623	1.2055111354757928	0.276265960692061	1
0.24383309249745994	0.37744866837960256	-0.3017602843109382	1
-0.21640482748263362	-0.31971217283897413	0.2846877523068604	1
0.36059200906697136	-0.09960588498272774	0.0018558866678327064	1
1.003463862604307	0.5761080758261505	-1.0198577086553475	1
0.32731048953587627	-0.17806143974212113	0.03242618368277188	1
0.30398824230110794	0.8018097435429192	-0.5714975331706104	1
0.17612060619758169	0.28495263547455196	0.40150296872282343	1
-0.18269651803345824	-0.010603258561059961	0.08600216007024632	1
0.16458496308421167	-0.44849967051450657	-0.5543682588717538	1
-0.11405823152451842	0.10734719021097118	-0.358077605754201	1
0.22304294375504335	0.2930803402392224	-0.5780709747324285	1
1.6643432247448144	1.3933154449226006	-1.0930389506338558	1
-0.13971009405228046	-0.17494258975124805	0.2206959281464924	1
-0.03624335932948175	0.3507516100765783	-0.21514121405959621	1
0.4546712656609375	0.1839647052644621	0.5611611519074445	1
-0.031004870914351883	0.24618969495347218	0.6352602649042467	1
-0.01318161742451267	-0.16040353014631384	-0.5497845529832813	1
-1.8311059347145555	-0.49607745430392225	-0.7642476751602401	1
0.7339621464937679	-0.5639375250443736	-0.18148749350538532	1
-0.22024167447007587	-0.4551176267727216	-0.5366919884376209	1
-0.7807061425642742	-1.2902210694407537	0.4202633491302741	1
0.24361661999304554	-0.32994251147346365	0.35912825070325394	1
0.6931726765758256	-0.49562187623278736	-0.27662040093946955	1
0.6640443292657746	-0.08309438782784143	-0.4965914424634663	1
0.507548984588565	-0.4057381948163457	-0.47331103742517905	1
-0.11682121190643915	-0.4968480053259366	-1.5213348423383148	1
-0.8590203740920722	-0.15424880248441497	-0.22799176067885643	1
0.04207401986376421	-0.006147959305701056	-0.15029765925470553	1
0.1272631304180606	0.11474041121978149	0.3403821703071579	1
0.17101019679194318	-0.7804238779557214	0.5408339004309504	1
-0.3533157486214319	0.33945709718589584	-0.10859596268182581	1
-0.7449338711769412	-0.23185565553223725	-0.5777535281591075	1
0.5253358236927965	-0.46346441238260533	0.12180038060566782	1
-0.0197862289095854	1.6187580972247622	-0.28335701657801904	1
-0.3042502824017523	-1.0197307846504196	-0.2552780590548345	1
0.1986445992023735	-0.19381101636587256	0.04918281759359754	1
0.04631633957141804	0.26198587512493005	-0.6505722570440641	1
0.07582228831598047	-0.45092542217027204	-0.27669785907981986	1
-0.43978835360828344	-0.17262514650960417	0.19574354646082565	1
-0.4466511950297703	-0.5419110767708393	-0.0037151726524445048	1
0.3468251578731005	-0.43322450465518986	-0.05629927534154175	1
0.2817053117467624	-0.12197422335183666	-0.2458753105361774	1
0.06908028152991294	-0.6803270319426664	0.6650532950557614	1
-0.4658044763624665	-0.006607146597857706	-0.4976796646474696	1
0.04973036611817768	0.23736275717662078	0.0665198336130166	1
0.11209077991282176	0.08967527316533727	0.4117461587440778	1
-0.20649409864080726	0.3534586715555661	-0.14837708256727833	1
-1.0246044587159953	-0.269908460607317	0.3726296352595517	1
0.420781238586712	-0.050303780337050186	0.1467259711416238	1
0.03209553157089051	-0.3201836326847718	0.5525469099936914	1
0.7158238976809244	0.28575518828542895	0.38500811004330354	1
0.07923032567799568	0.07407785775791191	-0.1153193724843746	1
-0.6630228709879592	0.571551326890321	0.34669980024325997	1
-0.7568449888922724	-0.7562716812911303	0.016233367820649894	1
-0.39074229933418764	-0.22817960302675355	0.6103235459105547	1
1.353446738079235	-0.3910379182042803	0.2681891487257844	1
0.9907121451644286	-0.14746619952260526	-0.16849079963203734	1
-0.1306927743328235	0.2844786386411307	0.09949023184527495	1
-0.07298992356264518	-0.07576007330647849	0.3070492001657479	1
-0.16447965359670844	-1.0624249821591234	-0.04886520389322349	1
0.1505503295234979	0.10597669034070656	0.14343829852952286	1
-0.5284772010020443	-0.4237015010209359	0.8538348993630803	1
-0.17714992937492297	0.21884856435187328	-0.09093748824276937	1
-0.21024240031842936	-0.17363038253913596	-0.07024008053177944	1
-0.28706211673198767	0.23313726510198965	0.45638850360162825	1
-1.092527246233208	-0.3588879554382235	-0.714608303900452	1
0.2731252089163203	-1.0574891627586525	-0.39965545168766725	1
-0.38040699567195857	-0.038322455185274114	-0.4881040657668733	1
-0.2705317543093889	0.3447638413508393	-0.12521525879098763	1
0.4582105146243061	0.8035717254794458	-0.2904542613076251	1
-0.2735654300609366	-0.19821487615782835	0.009727997738234045	1
-0.14636890524647034	0.11842737098360927	0.5084886393350789	1
0.5977448870951394	-0.18487161971262303	0.9238645837534218	1
-0.18501974342143876	-0.6480033630196378	0.678313163847667	1
0.20501096837294713	0.20240828398217933	-0.353332367401543	1
-0.6934407263790894	-1.0168069744810935	0.4913877568373171	1
-0.9005822804527156	-1.2191423317844763	0.25891683978192837	1
0.03439666716630772	-0.05645296301190792	0.040481863149611934	1
0.32999518579851383	-0.30376223452117235	-0.36228149337442195	1
0.2519376679279279	0.15678212135373973	0.6633377137764164	1
-0.8964511692786566	1.1227955162862802	0.0005983929256310766	1
0.023877394801689215	-0.22458135133937232	-0.3863326708409782	1
-0.32289974152039297	0.05159544663233306	0.10248624238387243	1
0.03676357369230517	-0.0024315335370854968	0.0623834961091555	1
0.3553194284044572	-0.020344368333115762	-0.5420828056837954	1
0.00042744565817762366	-0.09336790630030144	-0.011994365694735032	1
-0.7364737516633504	0.8431467047567726	0.668876731124381	1
-0.248237805948764	0.09481829843798256	0.05748115765850368	1
0.35231604658861687	-0.24034497654146292	-0.05755769173517157	1
-1.8983360818495048	-0.6448964472389279	-0.8304834142885588	1
0.7117343257868063	-0.059003032311871616	0.03454758782404358	1
-0.471555023125039	-0.6897162581238535	-0.4334049424507398	1
0.9038608703346515	-0.09806538623806395	0.0511053502099685	1
0.2922790847743116	-0.8155985080033145	0.6671215193764645	1
1.250434256748714	0.07235148212558366	-1.089211729904168	1
0.4331409649741342	-0.22868118261882114	-0.13852997744983298	1
0.023687303624659217	-0.14608793198546904	0.04705717184860205	1
0.8521555157375008	-1.2059559874747088	-0.5197105631400486	1
-0.3901834115215816	0.714043919830533	0.4102116246543332	1
-0.8892013266604818	0.803660004431021	-0.28292495831845244	1
0.16463495603119951	0.33344563903265323	0.3715561207800413	1
0.7153968771429503	0.18104542437656615	-0.39827992607130697	1
0.1392600565283157	0.4288698408011841	0.14328466875526752	1
0.45575841475514706	-0.09486037848748029	-0.48528572370229794	1
-1.0694006759828558	0.8497767621879497	-0.4809696371303708	1
-0.8350406936116325	-0.28714201123475336	0.016362712380297652	1
0.5102080274961712	-0.12249697423122725	0.2803063068605121	1
0.12531732534877624	-0.2266136390414403	-0.26970551377238844	1
-0.587660991834224	0.14484245634293938	0.3183071762562159	1
-0.18784770636388762	-0.013824197045120522	-0.007167084634980902	1
-0.1957175971711791	-0.24942462405893379	0.027323311254875828	1
-0.25118748529341506	0.13000617700194644	0.17131301143726715	1
0.5996444239702879	0.025540681070780735	0.5012221183108255	1
-0.07307509971332894	-0.03775819775876419	-0.0014906632050370081	1
0.024555525180061627	1.042994792863947	0.4661441333021235	1
0.03313070099065533	-0.28757028374481675	0.6075844449529426	1
0.6421330571091346	-0.16042335330723387	0.1429670358786926	1
-0.11843428254062346	-0.12446126756256755	0.1562228731691561	1
-0.2520343773865351	-0.08676994215415776	-0.04814372384661252	1
-0.2298222027904835	-0.42713027053734826	-0.12774604820856245	1
0.07411595209728006	-0.15094066778135118	-0.10013303978444711	1
-0.821966453522596	-0.5466399127674614	-0.5736535410894813	1
0.16149655242207434	-0.00994448468555605	0.12646567133108275	1
0.5084064746245811	0.7763145693690753	0.9942247317000832	1
0.5954426025579499	0.3081986751318786	-0.001890827587949213	1
0.2727012885599921	-0.44953780548666344	1.2153755728865088	1
-0.11049588340245045	-0.2088919541833223	-0.7068022484302481	1
0.01789840731690503	0.1916650981144068	0.27052063094907647	1
-0.8673986035127148	0.1407790643719797	-0.4183124712870584	1
0.8758546092970223	-0.18208052666362198	-0.5651796227789814	1
0.7020996001417475	0.029137872774010396	0.2667739038646976	1
0.3218583695442944	0.26317112012287014	-0.11979604477804931	1
-0.4664417393049055	-0.7001440030709473	-0.24304536370044555	1
1.7038546066583633	0.5316920635120306	-0.17696919177161496	1
0.10540942149008256	-0.673563612709831	0.052889418539536784	1
0.6109932319612164	-0.3901377411523944	-0.8499281398245792	1
-0.09022288033534498	-0.019239116664327195	0.27772751863335265	1
-0.2321631461947591	0.277289267372884	-0.08812384959053725	1
-0.47997198719538425	-0.4858640038924277	0.9785876778287571	1
-0.0017830210502464818	-0.07844704534046137	0.14024734595984037	1
-0.04094874649545683	-0.04068244905736949	-0.20393071353688105	1
0.319920108967749	0.8450065979275225	0.06591589575853578	1
0.06957456962092513	0.0012418376693879346	0.1734102193900594	1
-0.1706975282637881	0.12821710933281966	-1.2684947743697017	1
0.33434233604308927	1.131867572283091	0.09568559692225873	1
-0.18119373518458345	-0.3324670174197907	-0.1409537047788922	1
-0.16808790364107384	0.8636586515641502	-0.663723720820337	1
0.21013036420046352	-0.3659050853872934	0.13802951302824154	1
0.474205697855826	-0.184246564054995	0.3715876569486128	1
0.12441021166753634	0.01658756943522019	-0.29648136881077514	1
-0.09265178578585312	0.16644155558918047	0.2038313183612715	1
-0.2698640024871874	0.7384511954500879	-0.7381973514180008	1
0.9656871430386713	0.20454700114329724	0.017632916488159227	1
0.11447302731744258	0.22889327547482655	-0.29321876318368123	1
0.016423082607081013	-0.16724926286883973	0.039756963097881445	1
