-0.5275039686322532	0.17521323254134663	0.2984664865004589	-1
-0.30986518535773144	0.7108600429113091	-0.4657305404264576	-1
0.834160892490597	-0.23051338240939992	0.6406212309656131	1
-0.7020894600958681	-0.5356142065234919	0.3057709844812894	-1
-0.7504089253173987	-0.5302341630852125	0.29611548776198426	-1
-0.5313100009222972	-0.03262272479171829	0.34359043393183725	-1
0.934002389466126	-1.6391942457732536	0.4064130526276455	1
-0.4402610708139948	0.6011430938513779	-0.43483452061568234	-1
2.0962627825927247	-0.3404913868016616	-0.3495260943766786	1
-1.0753880275473313	-0.534921210444479	-0.3082590210797608	-1
2.5213166541273306	-0.8473976184645844	-0.014525505469266559	1
0.35881861939056964	-0.7806696089833505	0.6656187944111535	1
-0.7072429095855484	0.5828029658694468	-0.8729390730968941	-1
-1.174606627629087	0.6286129630584908	-0.6892250211542446	-1
2.131059938433612	1.3924662183291066	-0.14495434140954647	1
0.8280967086125819	0.8943381230016632	0.6431799855519802	1
-1.429104552370677	1.326452257590847	-0.37488628451876865	-1
1.2001019908627537	-0.02433347765064304	-2.581618354598654	1
-1.02922501334467	-0.4190288951927623	0.4182663609865759	-1
-0.9778556898495041	0.1980092713929269	-1.0400019045453455	-1
0.6767551640414396	-0.34751701654639106	0.38269697908056155	1
-0.49308741895933	-0.3265519668834652	-0.06095283029267757	-1
-1.7761877681377964	-0.25097803652489703	0.8874930082358548	-1
0.889122383524473	-0.13986244634483141	0.7007152185176453	1
-2.4454663423721854	-2.2011357813075385	1.2172194809666266	-1
-0.5288164976883108	-0.22246758656184795	-0.003983616258616032	-1
-1.0527906743379654	0.370260636339669	0.7199622280778633	-1
-0.8905635124402269	-0.9955375689512047	0.051078913170109125	-1
2.0813461776312696	-1.2195759634607781	0.5591313163711611	1
1.207225268050361	-0.15937849013204253	1.07865052731792	1
0.8689879325136235	-0.4960392987328622	-0.8258905921164406	1
-1.0647537049636013	-0.14748758181764438	0.5390218191881286	-1
-0.6513072416268388	0.3278458206398977	-0.9891756643577361	-1
-2.357559028458299	0.002186570108049629	-0.3564360497030218	-1
1.051096400846022	0.531692172739938	0.21036618511767452	1
1.5690831895206778	-0.78495757014078	-0.6977791734288543	1
1.855434977565703	0.7791376736135389	0.8560187640536778	1
-0.6030524349307143	-0.4888068385027954	0.47186685481816687	-1
-1.2253426578828113	-0.10644572800937888	0.8018574632309121	-1
-1.7571498629585922	1.8893723797462567	-1.6199396110125823	-1
1.5099454199567088	-0.4688139409409161	1.4977380051048534	1
-1.1882885217405512	2.6351747316857073	-0.3096969237888673	-1
-1.2017880149449214	1.4892060554425406	-1.1228424084728492	-1
1.116371323289359	0.8468366018483398	-0.5961840256814647	1
-1.3549948573965587	0.36721158633047396	0.6584758471057286	-1
1.1371085634097595	0.920624383606325	0.16822665836114742	1
-0.742864400693161	0.3895502290193621	0.6091021774106293	-1
-2.3057848275719786	-0.21683495605582015	1.1385325940110507	-1
-1.1694727995458374	0.8134838620164496	2.074848176196573	-1
-1.6000892756919654	1.268657558468481	-0.06766742716919166	-1
-0.444160939855794	-0.3991631999390053	0.645248080894795	-1
1.8460380281567654	-0.5193135560745811	-0.12880241357165112	1
1.3172822109743574	-0.4686535223055775	0.4843066330779666	1
0.9214124521246165	-1.0993140518161004	0.7006148229884898	1
-1.042836885454311	1.4846192513676606	1.4299765928698878	-1
0.2846567128025602	-0.07408367621297178	-0.39627053310549376	1
1.3831647490639614	-0.26138789348812347	0.011993622178453742	1
-1.8087045874457695	-0.8839843141946044	0.981025801705486	-1
1.113748114777153	0.9082560671591213	0.03211094225488656	1
-0.5038000707698347	-0.48842027520612197	-0.5288390448379462	-1
-1.195017470320285	-0.49811717142053685	0.05144285332682245	-1
-1.0081404485432195	-0.8049667268147702	-0.3139801577832849	-1
-0.2703543088151847	0.7648731532030133	0.3000628129194826	-1
0.7602767802541774	1.0950924889230627	-0.010418216532727531	1
0.37534723475593773	-0.32857043121518487	-0.1268501451057987	1
-0.5378752754595925	-0.6807837291595082	-0.18344943383380374	-1
1.2104842071160393	-0.6078385245425485	0.05252639581336705	1
-0.307639155718501	1.0495374391532573	-0.6045241134113886	-1
-1.396993831022784	1.8079079625142715	0.17886859181748777	-1
1.0468567981953099	-0.5986765621335142	-0.5020057037847427	1
0.7044510101084659	0.09724354407703713	0.31603240284512807	1
2.10477811384608	0.5380609189698695	-0.22471845439370847	1
-1.3666618148379055	0.2056076369105156	-1.5231912087920085	-1
0.3704648754370606	-0.08118401699984518	-0.5480417457990686	1
-0.552425871655311	-0.9286934841015488	0.9715569315453692	-1
1.3362044897114684	-0.5120829712313849	0.8631239192948824	1
-0.7443542109462062	0.4779282088245823	-0.028597745261481428	-1
0.8693894672575455	-0.6396439883125088	0.20158411890165462	1
1.3014368112055625	0.8464411364911992	0.4544022897677764	1
1.933282240040381	0.7046756782827805	-1.3018212445908892	1
0.9463302181569082	-0.11335959241762414	-0.6732967886646698	1
0.7607818627774005	1.5923276282229977	0.030238169301886532	1
-2.062267109482634	-0.6876781713079134	-1.1371025233669396	-1
-1.6803853652404337	0.15480331854772097	-1.100015876725465	-1
-0.3387270159832402	-0.006982234359262922	0.20698225367462042	-1
-1.8363290582858087	1.9942800951805686	0.5295720457432089	-1
1.7362662939696252	-0.956672415996164	-0.5929776907567934	1
-1.0275203693419521	0.1201780916914578	1.08053487867886	-1
0.45939711721977394	-0.20897317902580448	0.484249493650063	1
-0.6579194032756953	0.23949553504877497	0.1860536122554008	-1
-1.0250718548935318	-0.3246005617956855	-1.5600586248247112	-1
-0.12755902448712514	0.9955565231160155	1.0582836881906472	-1
2.8579128546471164	0.9120892409597476	1.0353965390320967	1
1.2748318195147166	-0.6635264689782718	0.9206886088833064	1
0.8458423583249071	-0.04897637696953863	0.6463510512245434	1
-0.7025038394731339	0.7792924411727792	0.1175755774711986	-1
-1.2090929047057926	0.13269268634504164	0.3922030750460613	-1
0.29174196179876183	-0.5567748812967319	0.007477815222126604	1
1.1419918792458748	1.505094793740365	-0.45549222971976194	1
-1.9832053587496543	0.23728150970539588	0.6406642647004992	-1
-0.6197843877522814	0.3150814032563792	0.8773744737988425	-1
-0.2414580622784167	-0.3472893566400339	-0.013004235193468893	-1
1.2381789177470002	-0.8059789101716066	0.47540084567153357	1
-2.4466011064461677	-0.7356522102701719	3.0681316629766657	-1
-0.9490991881868959	0.6245796555373095	-0.29380777622567544	-1
1.9271919606518515	-0.042810704347951894	1.4476403884562281	1
-1.0918782408301522	-0.4157747387719484	-0.5010457840375099	-1
0.9395531878683921	-0.8549624192777197	-0.07096922663563102	1
1.4572826340439795	-0.567692240028042	2.0258296107005562	1
1.4965554844796929	0.6567674654681526	0.30901658373818486	1
-1.039054487678359	0.14297168969421453	-0.00528173860864531	-1
0.5619078928149244	-0.7028127836633798	-0.5544819056501066	1
1.0311835157430684	0.250997962936341	1.425080628563672	1
1.0348231220169155	-0.11364101720188335	0.501154807126722	1
-0.9413400413190576	0.23714407099472648	0.25511050852208683	-1
-1.7429946177327094	0.9427513217711321	-0.40456423834413013	-1
1.4908873755017282	-0.20986849680160607	-1.4917317228846456	1
1.352986470082546	-1.8084777683724855	0.03029308748198606	1
-1.4964307225368496	-0.13335834084721027	-0.08640588604348831	-1
-2.183780056094788	0.5451320642298794	2.057396535754985	-1
1.259174727974786	-0.5397392777669368	0.17052249672405967	1
0.737496142403055	0.6397295887581196	-0.24442893123795328	1
0.7425627255779779	0.79337670860258	-0.5318322789762673	1
-2.6464336667038317	0.8293362411732956	1.7121032232486961	-1
-1.412392746651303	1.5609693886849456	-1.394921253524162	-1
0.7789821799317473	0.5018263239437184	1.7687900718437712	1
-0.976634021268725	-0.42319855521782923	-0.087095736730716	-1
0.6415284881721612	-0.19717715722795798	1.161655295160854	1
-1.6416681715981651	-0.6313410568343631	1.7566483756039848	-1
-1.8253983644335667	-0.8398952894729727	-0.19952428404120115	-1
-0.8332557607824551	0.24271656150501913	0.573169738730165	-1
0.7517247344761603	1.032321819790866	-1.015419280326399	1
2.198435301741875	-0.9283504137925451	-0.6508508658680733	1
-1.2706788144940813	0.9412649689033981	-0.618951529325272	-1
-1.4587806246042203	-0.7478971324767416	-0.5258324203016383	-1
0.9503939728526906	-2.6113634207659047	0.7985623836071472	1
-0.956666581046471	-0.8396787014777618	-0.27851384918053157	-1
0.15362793463049979	-0.051726525267565465	-0.12618052903913085	1
-0.6704857129824024	-0.5277637418122818	-0.8846200059449096	-1
2.3820442886559974	-1.0221553572439566	-0.29452905814471	1
0.6425180085674058	0.6204828488595759	0.4432466835578067	1
1.1114062487497076	-0.8164374383047469	-0.18645956827896196	1
-1.2408133715441372	0.27333012990451866	-0.389976994157546	-1
-1.3815363577383952	-0.26608207527235894	-0.37518090370335555	-1
1.1143010341102229	1.1360188135197857	0.7124293236209585	1
-0.5536865863991334	1.14839339945027	1.2025335881785442	-1
1.8716195453104891	1.0806383972250178	0.3619067150824521	1
-1.3121772449478328	-0.5788423026406183	0.24338881259529987	-1
-1.3795129499880974	0.1726008532914546	0.16519676690262003	-1
1.1786196569936702	0.5782386700787854	0.8342015201304678	1
0.21596530964476468	0.11568091604898612	-0.1970910695026235	1
1.076809177410201	0.7533225806630148	-1.5461640869486386	1
-1.5433991917210712	-0.6496788739656771	0.13133021862255603	-1
2.0948130133218203	0.19915447029069847	-0.5140500813473913	1
1.1980219742415275	1.2010785656362533	0.23564314723498594	1
0.8442301334903481	0.18736655921389211	0.9617157275564074	1
0.5127435154481006	0.9289514812508519	-0.006708020140633413	1
-3.381755319166246	-1.840475523466134	-0.7828407435293876	-1
-1.2009461710046652	1.7938490736635297	-0.05279018726682906	-1
-0.42725102470597315	-0.9140600182051883	-0.44000614318342174	-1
1.730395464937611	-0.636307914542501	-1.554471308292622	1
0.9717736869850252	-0.024146176988685323	-0.39963717736522275	1
1.948735555169206	-0.596565986182974	0.07206709974513567	1
-1.1051344415618218	-1.1806831743167236	0.739749983048926	-1
0.44018858408787764	-0.3347443107891812	-0.293259948125416	1
1.082044678298842	0.11410729909231151	0.7175711304644423	1
2.720026320584305	-0.7572373603929472	-0.6078361526682868	1
-2.3880216944911954	1.2512500283337569	-0.4345873949168358	-1
-1.4208403295718748	-0.10964254677772131	-0.11483991461363954	-1
2.0504523542034105	-1.311645568515009	0.8039079200170627	1
1.2856884942519955	-0.10115903608076895	2.2813364259189024	1
-1.1384703360875865	1.0077250480950848	-0.5741582829220725	-1
0.9151419815426465	0.3429002980716249	0.882801274186294	1
-2.0742069590497056	-0.7083709158586957	1.1547126094918134	-1
-0.6213584502735591	-0.8487908027053501	1.2757475684419317	-1
-1.1253587184547635	-0.3741273189465649	1.5914476563225852	-1
-0.6798265033170036	-1.5149760703483122	-1.1949145453764936	-1
-0.9944276515371674	-0.23871465375117829	0.01748255819796136	-1
0.5925963275942786	0.20110460325059157	1.1470552040757214	1
0.4945748601132312	0.00927315861389028	0.34471092899016825	1
-1.8636390745508624	-0.10194234503039715	-0.42414891344894756	-1
0.5391267906032815	0.5253236366805092	-1.5048211195104282	1
-1.0879546762233938	-0.33290852741217564	-0.14750272679988116	-1
-2.197413840340982	0.2139160422641117	0.2618767002896672	-1
2.4118030948305957	-1.3469442987690856	-1.5618869123434376	1
-1.9751798956143407	2.5616781410016585	0.6204426000516026	-1
-1.1164360044396897	-0.8841921321791754	0.4769901818088269	-1
1.1480555602061935	0.9296937779342779	1.030896136323045	1
-3.0035805059285274	-1.3307527682569325	-0.26749605056016224	-1
1.5002213442003358	-0.2852026503923664	-0.11143801008289078	1
-1.6529556627049815	-0.08598202571858451	-0.32956270288799805	-1
-1.7933276574551604	0.7924520286807342	-0.2843098468357108	-1
1.7967652719433849	0.13721934402451916	0.8793305099513443	1
-0.8356952034741862	0.36388449720685945	-0.9870223162668755	-1
-2.262885128104432	0.05791110365162182	-0.0452098758993186	-1
-0.42049713046407106	-0.29708087120936305	-0.9552830957408733	-1
-2.877917348870074	0.2956124496893524	-1.7965980742196284	-1
1.9842015850567902	0.3731392164804997	-0.7280168813774816	1
-1.6980533704556584	-0.23192744925825162	-0.14438109710805913	-1
-2.150554738610501	1.0261648329521225	-0.20878242590324614	-1
0.8983291989836398	-0.18161291534806126	-0.669983296280793	1
2.0469097860311276	-0.6674494451569549	0.04283434443494864	1
-0.5235998623020971	0.9708759655837317	-0.7780509674040679	-1
0.44813575774495074	0.6026659283687298	0.2973085293098541	1
-1.7411707829144132	-1.2083664710704671	-0.555914811588712	-1
-0.8677077596017251	-0.642868358661238	0.368378185179724	-1
1.8108893007409297	0.6296078450312887	-1.0865943350842753	1
1.5604281920584264	0.5912876407390281	-0.4636900127854505	1
-0.6327342140685166	-0.5600571967377856	-0.12103227403611916	-1
-0.3879063532791223	0.2857181931468635	0.5741808339577646	-1
-1.324123084145735	-0.6252110869559445	-0.8411247338797043	-1
-1.5875138436169158	0.5678321616352484	-1.200299755127526	-1
-3.986096224689816	-1.6446725509525781	-0.7420183133900206	-1
-0.7693789908373154	-0.22690797866277945	0.33786393309025653	-1
0.8346144029952148	2.133992432723147	0.16442321894605272	1
-1.0171818759224203	-1.2526439774815836	0.8226304312718289	-1
0.9247812665896534	0.6243149655031544	-1.2595788695632995	1
0.835258428210707	0.29924096211322954	-0.40600219738322196	1
1.7221806744514159	-0.39842300036365674	2.121302823235336	1
0.40626119294392715	0.12040525442229122	-0.1731083775131144	1
-1.1565733518504522	-0.2759055399420102	0.4549322963778234	-1
0.6875403139944825	-0.17885855607154932	-0.8197676878544844	1
0.8240569720851135	-0.00991478053656554	1.2074453615024683	1
1.9165626587831852	0.8855320393878935	-2.485039010651134	1
-3.9296181016985163	-0.3530419768376055	-1.5961696647689907	-1
-1.779732024562645	0.07031139955191124	-0.272260194547581	-1
0.566715028238729	-0.08198462756803898	0.46005416134491833	1
-1.7603026544370204	-1.5122346952970462	-0.9234891326402099	-1
-0.8047841004116398	-1.1825538081069316	-1.6246431944388569	-1
0.7293083361898313	-0.4249411854018719	-0.19243540866790645	1
1.3343134976349236	0.2982768341415331	-0.508721777620791	1
-0.7495275705438861	0.43361568081707447	-0.21292513746326142	-1
-0.7947054968285895	-0.27808871564471394	-0.20296446737326315	-1
0.8024386085584282	0.94235054511246	0.7032889615533653	1
1.2881696736430408	-0.9516822657845534	0.10912653295308801	1
-0.8225931391135974	1.0866930628501725	-0.013953590329959084	-1
0.9791760062064788	1.525096395267368	-1.2138002279978948	1
-0.23206008845507556	-1.2202411634119796	-0.4847543693862093	-1
1.2955222857722415	-0.028661284370819027	0.7713012384766805	1
0.55035950001962	1.165246062826384	0.058921793613920886	1
-0.8453380595195689	-0.1630641883095728	-0.4720075536556854	-1
1.0659243505064704	-0.0038650226586304246	-0.47613271157199344	1
-2.062092461873467	1.286692571919338	-0.03464036001973704	-1
1.0166307843496791	-0.46847239629039167	-0.7680034229596737	1
-1.6290735954037727	0.37198385308319387	0.976848397155595	-1
2.0395432858951024	2.460282751562402	1.2066033802778415	1
2.4859229399643072	-0.4342266812772218	0.24599298185420226	1
-1.135243330334559	0.6661922095012832	-0.31104219833182345	-1
2.0941907521897756	-0.6952163023770398	-2.1457426556790544	1
1.5852597998813147	-1.277739429453458	0.3340943931136993	1
-1.6788765886412982	-0.46533625739315476	-0.19194686959019447	-1
1.5659962305297634	0.7452654555970553	-0.26830744005732177	1
-1.073993772898146	1.36101203032651	-0.5290268179089108	-1
-1.8647448097029256	-1.0198057344299922	-1.8757807470542458	-1
2.315052733466337	-0.10268689880039353	-0.6425199929465051	1
-1.3710060260438497	1.620956990516513	0.43824868895102265	-1
-0.5301539007724893	-0.011268736157205002	1.3968542893894675	-1
-0.4946421233078624	0.37812460216305027	-0.006062602225883882	-1
-0.49860296205802934	-0.2355428543238344	0.5781122685208515	-1
-1.2501572418621199	0.03648386524007304	-2.9902492226103394	-1
0.4329714838862955	-0.8303125859857725	-0.600822988846504	1
0.8596617964938168	0.4432658409705734	0.5805193798854157	1
-1.404104306638024	-0.2615380061725119	-0.009709818378770588	-1
1.2197094809646205	-1.1906004771571261	-0.5332287402702399	1
-1.1301979397544593	-0.4322873824420091	1.5553844597798436	-1
-1.1479631503813859	0.030739122349672247	0.108799957586103	-1
-1.7010697863929076	-1.1736133886366025	-0.3282409132975726	-1
1.4747698714111943	-0.23833568904256044	0.2505278291278571	1
-0.6553691173919002	0.4331900945914851	-0.6335694644283192	-1
1.1198070629863541	1.6549512245922238	-0.28586377652320316	1
-1.2292626672146032	2.871087237608619	-0.26931702743991237	-1
0.9893788804292731	0.47765805947913087	-0.18023024001951474	1
-1.9404058060265084	-0.5459161867781529	-0.0011461058664166822	-1
-0.8721711757376016	-0.7269135345637159	-1.0087470791414552	-1
-1.3351825211403068	0.047507018845894325	-1.8107118587232176	-1
1.2999394051820943	0.21802844156484863	-0.02304538340524174	1
1.0206241011263855	0.35545427152139975	0.1967673936145982	1
1.2289377203968344	-1.4082601988131564	1.1445261329590535	1
-0.676560624964037	-0.37289881190235113	0.2583594827847276	-1
-0.5902152338537646	0.029572675294339535	0.40235774480154207	-1
-0.5598790779409311	0.2918564416622528	-0.1485033472782179	-1
-0.9327211644625	-0.12030819646912816	-0.3784842751471949	-1
-1.3162473025511403	0.7180130650998366	-0.4928722565134538	-1
-1.0865361896669934	0.22455184793075406	-0.26214819883224894	-1
0.5376526951097164	-0.9388691198319018	0.03565265650989285	1
1.1911028893351805	0.04510775616270356	0.37672209480963925	1
1.504091389628835	-0.1653101569925885	0.18975475807416853	1
-1.707964360349941	-0.44896299158007946	0.04527726271946324	-1
2.7084707036737825	-0.9786272312605753	-1.3009327628988088	1
1.1673199356386166	0.47748236092422386	-0.4490588127883662	1
1.0861312536106298	-0.9079932118596529	-1.0947990473015858	1
1.334536894588136	0.8259805603851068	0.8300351020623045	1
1.2987369520352046	-0.912464295023014	1.0319957857756148	1
-1.5313875840184559	-0.16097509831011425	-0.6729008322107461	-1
1.4481863024157118	0.335653833894446	-0.9635018694108346	1
0.2815890231321947	0.3130578047975768	0.31364615600249507	1
0.5915419017325838	-0.4876675108775817	0.1645567800039854	1
-0.7248739057341608	-1.7921447404797064	0.6471024623722323	-1
-0.9049389456487452	-0.26178593022844043	-0.3278363351240944	-1
1.0227689275212755	-0.6557478834501813	0.38755433149288115	1
1.992847403638783	-0.19180429600413998	1.1749797010311267	1
-0.5404125955263649	0.02196920123423263	-0.6379589254293386	-1
-0.8490221863059509	-0.8553485368893496	-0.3199547635183919	-1
0.3113904282056623	-0.5887144262269324	1.2666153403517693	1
1.2118412790366122	-0.08303718287442505	0.5818941140668432	1
-1.1154075318766943	-0.4514964473788017	-0.27265070723052753	-1
-2.51649365494783	0.939196655553222	0.0006308162591343248	-1
1.9088747176671537	-0.4614170112387568	0.005793646025854056	1
1.6116999528524474	0.35808604314999315	0.3274344592331998	1
0.7450729099050502	0.15533663217743965	0.1982395981833192	1
-2.677706513728526	1.6945468134955917	1.443144276395516	-1
-1.1534634543279916	1.4193421717600716	0.07474997161964757	-1
-0.7430329617918306	0.5670656351353378	-0.19313847196323614	-1
-1.1071935167765714	-0.2787253274898409	0.7640939567628204	-1
-0.7528199750093731	0.8820456155888811	0.04631782578566314	-1
-2.2985489548125284	0.17336300885697867	-0.6449328054793537	-1
-0.8936846311018818	0.1844379073740136	1.7479105777771873	-1
-0.9357519870228341	-0.8185077424915344	-0.9449714969849103	-1
2.2692288344599247	-0.5625811138629184	-0.24373745769381738	1
1.5380708780317436	-0.38545499104415804	1.4687589175375613	1
4.121646204872152	0.4958816127667494	-0.0631687477972395	1
0.44801919668595264	-0.42014490122333026	0.6773319992358969	1
1.21474111721071	-0.04781939746517936	0.1291047851180423	1
-1.855463437076084	1.7165996380229986	0.45055377885840486	-1
-0.566503292907635	1.0231637766085728	0.7240181082116838	-1
-1.6660944418924493	0.6633911434029947	-0.2732610083011281	-1
-0.7001315554788119	-0.3217417617717374	-0.7524038927179508	-1
-1.348373595105658	0.41420248195712417	-0.3893890777040519	-1
1.1916484508671998	0.2018140647746911	1.3884571096549885	1
2.4259603729429084	-0.34263569098277136	0.3727570393356784	1
1.4519852101886743	0.34768167231028013	0.705962778117964	1
1.8326358426933116	0.3277534705353591	0.03467605935453604	1
-0.5864757154660051	-0.24535040341364361	0.3685305766836836	-1
-1.5055495452913936	-0.17993312145049462	0.9184918661602581	-1
1.007818911624903	-1.3424874271274432	-0.32375073751352823	1
2.573143124863105	-0.1986619123370205	0.1412906840614761	1
-1.9062373488779658	-0.5684392090527646	-1.1052126580529844	-1
-1.1025819276435271	-0.48648849866181215	-0.551148356967418	-1
1.2195630112428217	0.7728110505313199	-0.5854938520612195	1
-0.7256339882170402	-1.1597421537036685	0.4611412179337265	-1
0.4999188214458822	-0.3725259925047707	0.10832046728165298	1
-1.4647643713088607	-1.3132433956445975	-0.5285553238083079	-1
-0.23257927510173615	-0.7220397600421979	-0.8375187905003593	-1
1.7848166164664998	-1.009243863287975	1.0110289954913936	1
1.5384144407114226	-0.6688915532243237	-0.6397821440733582	1
-0.15529631267869468	0.14573383511994198	-0.07060126843855864	-1
-1.3780685952227683	1.5633538018852218	0.5029864934869042	-1
-0.6458514061880951	-1.8580719734297904	-0.21156026057643734	-1
0.3788353917542141	0.28947700145779653	0.7164644853519999	1
2.207252614868803	-0.9680333695951118	-0.25217965804565223	1
-1.5939660072738469	1.2064843393554265	-0.5559594892282479	-1
-1.2650397736967127	0.27064438623198595	1.4738883312298237	-1
-1.1602207869898895	-0.08802753588277767	-0.3304259483870511	-1
-0.9141201727481094	-0.5186638336740677	0.48649809165966984	-1
-1.0690201245697777	-0.5966036928575862	-1.242972400680745	-1
-1.3837368711528344	-0.7973056485751042	-1.5884716063813538	-1
-1.3224380266295015	-0.9604775508891417	-1.0681377933312366	-1
0.9576269118977583	-0.23534871105394212	0.48453956528239833	1
-1.3228399925192769	-0.4767464187318414	-0.14810052286772968	-1
2.704218598417552	-0.4321553793340756	-0.4173849351888477	1
-1.0384120586066454	1.0923754651298085	1.4936513476284294	-1
-1.1413379127237802	-0.7349801495411639	-0.22072091447448364	-1
-0.4233261447643347	0.470501154647149	1.61470608077707	-1
-1.2943389661523574	0.5535523648679159	-0.34334745542915535	-1
-1.3107572929636209	-0.01257167597309991	-1.5209953121058188	-1
-0.5065292138698985	-0.2009204477481136	0.31993741898417616	-1
0.8421711558842777	0.08373615105132366	-2.3485812879164816	1
-1.4392268767549732	0.22096380825797104	-0.32313600058686165	-1
-1.2761021740476792	0.1784975681393357	1.8061529174142978	-1
-2.3582283221388773	-0.4393041876957269	0.6796029339784845	-1
0.7672286554001811	0.11513102120708803	0.6698648995434066	1
-3.164053977528472	0.35089412617166127	-0.7979583117116857	-1
1.1545159031202101	-0.20716955327202538	-0.18586585230695546	1
1.5362647247178316	-1.0826313935149963	1.258456124034151	1
1.0128068246044952	0.7980766290234753	-0.29075478755011164	1
1.7435966314470674	-0.48989858951802556	0.4048926528653399	1
0.6361731896585043	-0.09980889498525175	0.13413231995819647	1
-1.2568497202964832	-0.8542866656588994	-1.4869116536530274	-1
-1.5010144762743125	-0.22656996921332676	0.4531332530485879	-1
0.5022104128707214	0.1442459671414929	0.09190057966974666	1
-1.4667188325502105	-0.7646175575081746	-1.3845257513156197	-1
0.6483439413210909	-0.657314859758289	-0.1314362856019304	1
-1.270790956425551	-0.9558862084006929	1.50958788528415	-1
-1.292358723007909	-0.7050946505987008	1.105652703950103	-1
0.9459613496747028	0.38701661248223784	-0.6873565601589183	1
-2.301657999256477	2.4650009642074036	-0.9036990021509316	-1
-0.29366630163132856	0.13484375119269487	-0.4779002077217813	-1
1.2613225907936945	0.7079625365951557	-0.31354358585122005	1
2.789821368701415	-0.23974510988777678	-2.1023250622157543	1
1.6962183607246335	-0.42442536738905723	0.9129359002261386	1
-1.0155524022403548	0.5941120397271977	1.7138775038493947	-1
-1.0497546416498167	-0.7907153824673238	-1.603502788456841	-1
-0.7411766436437135	-0.14833594946714587	0.7295078501075289	-1
-1.0470179251396274	0.2359289231577495	0.9178579859901372	-1
0.14893246479141933	-0.6980623117793034	0.8805003914236875	1
-1.0299719381755903	0.6043125565871507	0.05887245361805089	-1
-1.3381224354023484	-0.3036582415465507	-0.09492499791729817	-1
0.28069133610323765	-0.7717441417215676	0.6759533435567104	1
1.1051036194764392	-0.25594325294332276	-0.05233577564897852	1
-1.4506377562114703	0.6525527029063507	-1.2364826955507795	-1
1.2449883930470933	1.341449539715173	0.23381659330046217	1
1.5000368868649923	-1.0797683187693976	-0.5921790521129102	1
1.48752878496289	2.289389554980936	2.7467398481149083	1
-2.044103290809045	0.26060918564302504	0.298709601785442	-1
0.8806430998523643	0.4711257542950731	0.2822587358627917	1
1.8131688510927149	-0.9970450917527588	-0.8209429765972602	1
-1.8680401235054804	-0.41363949768858654	-0.16402913736108515	-1
-0.5505617698601137	-0.8611476661705507	-0.0578340563113751	-1
0.6618522847965327	-0.5698048730779107	-0.39026116784898723	1
-2.487639292045452	-2.2619654232597415	1.398833811653303	-1
2.6462164634806866	1.0891592392217495	0.773771482643133	1
-0.6993602690727838	0.64291615188548	0.5181301105012471	-1
0.719955240485652	-0.23526605570099327	0.21287955519509494	1
-1.0744103906202433	0.07967236425629237	1.6018447582895636	-1
1.0156365666623266	1.1295039836155545	-0.5856476792701524	1
-0.11441008405788185	-0.3554038701259389	-0.1633709739286785	-1
-1.5215982037573252	1.3055360494442072	0.028082032023367322	-1
1.2905522986215616	0.3881276560664335	0.4477388803579572	1
1.8266900856717152	0.3315431995910537	-0.5797112178161407	1
1.2139826333771464	0.14187065911762356	0.07922902870384227	1
1.277434007422391	0.7051523802702298	0.4071312271173271	1
0.73926582303724	-0.6243432880994186	0.10366609659992818	1
1.0988738237033508	2.443838181640902	0.046801470221716164	1
-1.3035033376286909	0.3528062920510252	0.5534551230781058	-1
1.4059115276678782	-0.24329323324960864	0.44310743188548485	1
0.4037187399744496	-0.533568285513448	0.025492788045394305	1
-1.3086722063516116	0.8490113505596566	0.44818334059798676	-1
0.466831912951735	-0.5790148135967321	-0.2895821604327845	1
1.518028075223623	-0.09661196895348514	-1.1196273502791425	1
-1.1033417381911121	0.5119399251084034	0.24798350741245423	-1
-0.8227006156505833	0.07170446239389784	-2.3628899265512437	-1
-1.4184810579361813	-0.28488087701757314	-0.2307294139898468	-1
4.2157868947076516	-0.6193571975350599	-0.2204091249103274	1
1.0776705097961332	-0.1665244050621834	1.3167474800914092	1
1.646176984607027	0.3971713699316328	-0.5038707363424703	1
2.8220900899521792	-0.3559493872138446	1.3204698686328495	1
-0.5966970803694513	-0.14913521376798897	-0.39072343159548645	-1
0.7136009114961769	0.10527771040236263	-1.5930409152878728	1
1.9069773200627371	-1.2019699188174882	-0.3974655985325018	1
-1.0471066159517977	-0.5600548906286302	-1.3452866534443513	-1
2.1389415720516665	0.9280120706983435	0.6209510421432213	1
-0.7204146732747314	0.30049983128773633	0.48225412824607394	-1
-1.4308135053693247	0.6452238848822696	0.25104811492395906	-1
-1.1460260621028886	-0.37691893747315663	0.22402041645521836	-1
-1.0222029169949676	-1.0406310286004736	-0.18672971824487394	-1
-0.40900755900977004	-0.7069856125595366	-0.1410656229272654	-1
0.8646565982692813	-0.882944413292011	-0.11135263519133304	1
-1.218574204303833	-0.8613201584988626	0.17044685948303923	-1
-1.5926455007521068	-1.1948953419284698	-0.2622079402148595	-1
-0.8449239868781568	-0.7437920088388076	0.5590453504699338	-1
1.291916768531943	0.45659843556741936	-0.2493781237496815	1
-1.7869559153657941	-0.34311936917876906	-0.6399996235748294	-1
-0.750175516862529	0.2493316620908128	-0.15824543719175924	-1
0.9003862611770754	1.1848287658783672	0.054540751986825245	1
-1.1065365372375713	0.09387425815607499	0.7893649974271988	-1
-1.4471279035848206	0.38466797966652677	-1.5127299930526266	-1
1.225918731754375	0.44474849204112765	0.12043126894463013	1
0.7273219683029184	-0.12356271224331251	-0.12278807115821697	1
1.5409820964418828	-0.12404453985178018	-0.0030927348268992125	1
-1.7454801682275187	0.6406693057262276	-0.07145050657880374	-1
-3.4159502968568614	-1.2095126620995145	-0.9518992728719058	-1
1.469272668930705	-0.5175202933123374	-0.5847790592805261	1
1.7764549537711993	-0.5738283002658018	0.6935708416264551	1
-1.348338544504353	-1.765982667987702	-0.3928950532511134	-1
-1.1471362232022337	-0.004510758083626181	0.6317905568601165	-1
-0.18452440246289395	0.601233425117707	-0.5296018853191314	-1
1.7297060314800252	0.3331476201957268	-0.27823015526052114	1
0.701338206546261	0.2893405078511293	-0.5190453986827088	1
-1.264646152090259	-0.7210334552951885	-0.2689789442193885	-1
1.7891013654954024	0.40349573539939143	-0.7457518404629889	1
0.5475474906398784	1.2194959776675123	0.7856763407822451	1
-1.6848503653575977	-0.8025293845318481	2.0031903133714954	-1
1.645785151272569	-1.5486109546099942	-0.39668223500627897	1
0.9171274740226926	0.06652103216364477	0.4103522301955128	1
0.5334312901343186	-0.1680762458941052	-0.10659039912140664	1
-2.1933251329451267	-0.395682238761187	-0.5824178242528898	-1
0.8053875401140422	-0.5187112287879407	0.04145075828069333	1
1.6331508341722674	-0.6053951676168433	1.3994591222176722	1
0.22895643228112952	0.8311333782719552	-0.07677993628576275	1
-1.404396935955245	-1.2206433142315234	-0.8426403620771157	-1
-1.4659843425681216	-0.8286629223641793	-0.7185339613719595	-1
-2.1261008461021382	-0.5849210617819973	1.2671579034350955	-1
-0.8579284643832077	-0.37926661424098446	-0.7916457544348678	-1
-0.9392201389477923	-0.33966066559553587	1.3688549992670256	-1
-0.8433586465440365	0.0056515758712857266	-0.6510806798603446	-1
-1.966992245351539	1.298551305309878	-0.09796410179174125	-1
-1.3308188037329058	-0.10484965758084239	0.8479418460112926	-1
2.0859221976236655	-0.5903057956582474	0.38163918036405053	1
2.422931123753962	-0.37496921187845755	-0.36196518116435616	1
1.4472419401279084	-0.9341157740592883	0.17889049169198493	1
2.282865523154392	-0.384050978123499	-0.007505619929837804	1
1.0804235379892895	0.09170171842868949	0.92968346725455	1
-0.3104165771080952	0.6353684012384566	-0.41601720321827435	-1
0.6233820593466104	-0.5241775558338075	-0.3158799312371824	1
1.9931645077454692	2.0156374026347343	-0.7223457661260332	1
3.2150451319818405	0.3065444492622015	-1.160980970995446	1
-1.2105226615234375	0.35244686121118846	1.0184700660516643	-1
-0.40764524053144546	0.8837787198244529	-1.0293180405609013	-1
0.8980439070796159	0.7390900714565951	-1.4794106021747375	1
0.8527381445958159	-1.0262405729049342	-0.5812650966213194	1
1.876192710938903	-0.4981363131225388	0.019267520454023593	1
1.7356370952199447	-0.17061530107282089	-1.4977199562897845	1
-2.338926622783201	0.6854190429221492	-0.20837935384993944	-1
-2.365386661195989	-2.427671952545807	0.02090433720533307	-1
-1.4323280777746632	-0.029764841303971435	-0.5811340572983661	-1
1.3143125652603715	0.46001887956073473	-0.8240273995315563	1
-1.251998686377366	-0.994410501999985	0.6303295513695149	-1
1.9694110734574974	0.8666693957173247	-1.356264066322223	1
0.5593643493535068	0.36234403447414276	-0.19052707356227297	1
2.0382680851101758	0.45483958492871573	-0.1362418475200174	1
1.733750056569295	1.261999414438842	-0.3916056297705188	1
-0.7998626054321436	-0.2855357170632468	-0.026505169000570556	-1
-1.4339588431714532	-0.5720198152335755	0.9220228606050347	-1
2.5331066909686113	-0.19603420616516848	-1.504143142146151	1
0.6564052743774687	-0.17376538015176463	0.14773132759201651	1
1.214531343049999	-1.0119910236147414	-1.3943133305029307	1
1.2112786519384642	1.0303023610596247	-0.35948361965538567	1
-2.031926257079485	0.6230247958001061	-0.0038758717457199046	-1
0.40813044724255915	0.652656804255136	-0.024685062274101888	1
-1.8215610498191652	-1.0634082599639747	0.7694546245729013	-1
-0.98712327425886	-1.2655408376152661	0.542324852981941	-1
-1.2771313960368444	0.6769866002983999	1.5865567147493094	-1
0.35737086080989056	-0.028106068823809702	0.3088824488026407	1
-1.8198973782309251	0.38316406107606393	-1.102584617674414	-1
-1.0604571173856219	-0.48444365535824374	-0.6823492846964135	-1
-2.8572785843091113	-0.23708095350425454	0.2808068036732845	-1
2.0640348744614276	1.9753828052665083	-0.9876337731551799	1
2.472396971032932	0.2284701011280973	-0.5891706270168213	1
-0.46042161012778715	-0.32321463875717416	-0.22097962846156727	-1
-1.0137121739236812	-0.7095030320111461	1.7104750820895762	-1
0.8142777665926539	-2.212160288693763	-0.1284650342707979	1
0.7000192727593668	0.21659035094656123	0.2815103517447798	1
-2.164904856157224	-1.8205949868926106	0.14054084138601924	-1
-0.8696960007188232	-0.18748037674070145	-0.3298436208405633	-1
2.612384727858025	-0.8589993634505732	-0.3965257909710892	1
0.9053551778560719	0.45108867419588383	0.8880407105238823	1
-0.9877913061837764	1.1508418740471789	-0.3088285822739927	-1
-1.0533752937039176	-1.42775090068222	1.3226777294210645	-1
1.4328981042817557	0.4332416851938925	0.7393928322513449	1
0.6767323888998755	-0.16332694712256773	-0.16628849440884194	1
-0.9211132334067482	-0.9838503291946739	0.2536546412930238	-1
-1.7526022831314676	0.04881825413506703	-1.9587916265295047	-1
0.5401084974096195	0.10367180340757445	0.7092089231223431	1
-2.0730149671683744	-0.8414995275099174	0.10515622745262487	-1
0.9623360507509173	0.9373236820994766	-0.10396448125001352	1
2.345001813185133	0.0002189556734838469	0.49206067575501145	1
3.217889262862653	1.26172138364623	0.6604401328790522	1
-1.2542955709171164	0.4530903258455561	2.237537600196376	-1
0.9593753286732725	1.351444603256142	0.03763782725526568	1
-1.4952000537816472	0.1852515213282604	-0.3321059698559992	-1
1.4029490116870114	0.7063670802896309	0.46027937280288334	1
-2.4708022439027237	1.9566900200783244	1.737700014021531	-1
1.5472038395409693	-0.1750928858676154	0.2528623885376664	1
1.3627764618409677	-0.11306291588324974	-0.48130866906461406	1
3.533068342093957	-0.3619169785324714	0.3273581105571384	1
-1.0804576915410253	0.08189241226484192	0.046879877507859775	-1
0.5526636749529574	0.1003318776536283	0.10088127444675622	1
-0.8051259924201097	0.4631708210828836	-0.06125697443913605	-1
0.4425929198196879	-0.595281196818827	-0.32824041377480173	1
-1.5672299256630344	0.15661610358772002	0.15060335815460335	-1
1.4837344768797247	2.3172080349198367	-1.0821246404709648	1
1.7136638416851435	0.1833546521480871	-0.7595868393200111	1
-1.7781868644442531	0.4793467728745717	-0.019719210324131767	-1
1.027392649031024	0.5563283228848854	-0.2477102629386058	1
1.538425780359911	0.7976990520416051	-0.4372252005232132	1
0.23053158046483796	-1.2021732112782	0.014027416273798736	1
0.7536025297269833	-0.48178439404789064	0.7398758552889354	1
0.849100169516278	0.4899071721871684	-0.20418964809664278	1
0.8521067498820485	0.6640678752564046	-0.1239049718933696	1
0.8657673525052016	-0.6015886960764507	-1.6648370638329406	1
1.3873790561646517	-1.1375096145200785	-0.6744329362506569	1
3.0010124687024744	0.731366814312478	-0.9611497498577715	1
0.3165691462731399	-0.5631230515074689	-0.7301633044339348	1
-1.1275536540216209	-0.3687742771126119	-0.06296890124645182	-1
1.6611798518851755	0.43130802194865747	-0.11089347433247361	1
1.023575867556312	-0.6659501076314723	0.7798726661128188	1
-1.6383876790775385	0.4153468565279088	0.24259516980722357	-1
1.740053947567067	0.16945844135638888	-0.5073706618719226	1
-1.5544299609708854	0.1953023609299826	-0.08770283834821549	-1
-0.3250713378247471	-0.45230962613908765	-0.4919585272096382	-1
-1.5454674110006819	0.6575441389439979	0.002916267415067791	-1
-1.8285182233261745	-1.3751496388526632	0.7518066699556619	-1
0.7555256153895427	1.4771186427161291	-0.6246958140308504	1
-1.3696021372101825	-0.4759305350990567	-0.2610637560562208	-1
1.4747853918186697	2.428522846116974	-0.8233080501366052	1
2.340706874094842	1.0547454147575517	0.2995933303918531	1
-1.2253721749519415	-2.095225390285628	0.7038174600318738	-1
1.7430556053690482	-0.8645914888955326	-1.3916283622446541	1
0.46021254636089415	0.562694144334841	0.27778846771362453	1
-1.4690530523307377	0.7333710127881499	1.1343230537793743	-1
1.8342508386261582	-0.1588573266409695	-0.08639630768152909	1
1.146344662391473	-0.9410109328237632	0.8611490384223952	1
-1.9683622889710857	0.9367967059867592	-0.8178832859152575	-1
-0.8080740457043094	0.8408876290784915	-0.5598984553467147	-1
-0.8920041901032538	0.4563739235247448	0.866764135196457	-1
-1.3445371122620238	0.4128121258943317	0.7492532005039514	-1
-1.2992537714396575	-0.6069717749347894	1.3434823716834876	-1
2.4883038015529753	0.935727046088621	0.8345219170164295	1
-1.985465340038994	0.5048676652207484	-0.6571472949390731	-1
-0.6003478386943598	-0.6221805425625722	-0.08568176429402555	-1
-0.5134883366594831	0.02609361096853806	-0.2336941089335895	-1
-2.213280388306715	-1.8110895307192614	2.1665515549477563	-1
0.9277552531432601	-0.3534966760600622	0.08111996584781683	1
0.7220335763890091	1.0131284637251823	0.11330728797042057	1
-2.136019898450942	-0.21028513806865518	0.15931581647715395	-1
0.9250996173899809	0.01897340588135574	0.004597474287875143	1
1.926033351739011	-0.9160588996808321	1.1390156229870196	1
-1.761562323081535	-0.5619652829856472	-0.2647172603313729	-1
-0.11464790275447535	0.9480766120513714	-0.0079537966675055	-1
-0.2859191299286563	0.06741996073984312	0.7434094385379433	-1
0.5108663617660587	-0.0008452643928899576	0.5540945988108965	1
-1.0493895002390716	0.4860735657314033	0.09012946727171361	-1
-1.636328122789041	0.1046453042962029	-0.2217536299674673	-1
-0.679089117384332	0.6205286643578583	0.22142365253992008	-1
3.202353616321556	-0.24154368695831863	1.2937039155012584	1
-1.7732717766890178	-0.7960746454197332	0.5213695033335037	-1
0.9889601492117646	-0.2540996182519955	-0.11591518173870882	1
-0.981590923146082	-0.7921168915675987	-0.33619427255421974	-1
0.7660111081536846	0.355903888588466	0.37726027081858576	1
-0.962113940574267	0.13255406637053788	-0.3726620279195599	-1
-1.6472853139644763	0.19730360727185003	0.9181222318103783	-1
0.9819336709990063	-0.7055937237701955	1.1937930355206974	1
-0.26687620821342506	0.08531659130269434	0.32684885055471036	-1
-1.076728521850079	0.1116326221479539	0.5614024011713847	-1
0.9938573811158098	-0.4480752169900608	-1.262436194804508	1
-1.551614055000269	1.8272862792116142	-0.9187820468747835	-1
1.5119611141409472	0.3225156326996612	-0.013163121853683544	1
1.4359768606144743	0.26374377502838386	1.0155038453866831	1
0.7638730575703752	0.7273771738363137	-0.9179239369326151	1
0.9706494017394506	-0.5321846033979756	-0.1551649190131826	1
-0.3156152030480307	-0.30528629812696106	0.45262149646036376	-1
1.5561489021140347	-0.23752530962791174	1.040568257318885	1
-0.3755048822682371	-0.18687322095515063	-0.5412622640242596	-1
-1.1336382708182713	0.4085400660014931	0.43349471427439024	-1
0.8289001090450171	-0.575239439505473	0.3230023737932943	1
-1.2733466832411315	-0.06644099813072661	-0.5075182154898221	-1
-0.7015499445702509	1.066829830457091	-1.4209079983849284	-1
-2.621649363171146	-0.14739988668186732	-1.2560901709392776	-1
1.2184208834551176	0.1396167946733422	-0.4952351255736785	1
1.228449877414651	0.3968172966058157	1.0575781980689298	1
-1.3542899900094751	1.0223228975276923	0.10657446755025865	-1
1.1406116884744777	-1.0544530586187635	0.4549056984256611	1
-2.461135711924921	-1.1801482915223214	-0.07724605749790459	-1
1.6335487127454336	-0.4570992408962544	0.4328503755936724	1
-0.30538800615903133	0.04167117983506799	-0.33077151249438197	-1
1.0208109436805355	-0.3987932605537011	-0.12690840328070066	1
-0.4674583475136734	-0.645196217316828	0.06583103952484437	-1
-1.3726480935074	0.9475629969746012	-0.9010092322363263	-1
-1.295560080665834	-1.0385899546911947	-1.0619193344181368	-1
0.8506607543419213	1.496899013277885	-0.7429064187076244	1
1.2547905845324356	-0.6672073363189922	0.14094696504485985	1
1.9020278703511866	-1.4077037435857784	0.23865897483279433	1
0.4764608152377786	-0.3988582770440304	-0.30199078178125593	1
0.9922573430307833	0.14393524717704897	0.5247592491628881	1
0.7074102414276173	-0.6327680116727554	-0.7790976921984655	1
-1.087333919580662	-0.5082142428159995	-1.1178325032848582	-1
-0.2324674810697427	-0.3876912039034866	1.3215553342720308	-1
-1.2349392912107853	-1.1227603399593948	1.0169097182840896	-1
0.527076649875475	-0.1465479563311824	-0.7449249667072922	1
-1.4515490307430885	1.0265078072861622	-0.01658423753816165	-1
0.10302808815835782	0.6665283227920888	0.5933905234087298	1
-1.8796686165721657	-0.2640465637088035	-0.897009531425384	-1
-1.4260644513942842	-0.2222779542496032	0.236313065651317	-1
2.254169435281434	-0.8179037902528528	0.3257083223157236	1
-0.744948700017521	0.43827395839247196	-0.11629928914380641	-1
-1.8995494596909843	-0.3038492164043516	2.226176775778162	-1
-1.5381578796114268	-0.9398268142496394	1.4349590043170366	-1
-0.85460440184572	-0.6611677768832711	-0.6504142020496642	-1
-0.8929123973404354	-0.3623517083356798	-2.1124940430236894	-1
0.6743658304673135	0.6778206278962313	-0.08527130152640783	1
1.6567116024495774	1.1343452399968836	0.2885946892258594	1
0.6370011199692031	-0.6821564967686804	-1.3426992765875267	1
-0.9087588006894026	-0.4116405671568235	0.7749639397369071	-1
-0.7624032890257835	1.2377258696005293	0.8204708571074275	-1
1.2839801413652574	-0.5971015187320106	0.10727932726953646	1
-1.3293842395106463	-1.6495937049031806	0.6095090914124637	-1
-1.1792961216062912	0.3812323118836239	-0.906490552168159	-1
-0.9009436555093715	0.9933430393468639	-0.339686738449591	-1
-1.9305486136685914	1.1047032378816792	0.7111313226446453	-1
-1.7944829362013182	-1.7084499540785452	0.22824136156363897	-1
-1.646108887720875	-0.4222424255615498	0.4823450782623637	-1
1.2897392601092579	-0.5341256966222638	0.8808492716118149	1
1.6360391551750422	-1.0957773590886628	-0.5234850545185978	1
2.9142411759043836	-0.7175110074303181	0.5090703116234632	1
0.449340358863853	-0.33846311620323055	0.27582164701683776	1
-1.3639091244167292	0.10121936418133981	0.9414410814228757	-1
1.9636900803187975	0.8298521000472517	-0.5136517835587375	1
2.06793216150954	0.6917287626892679	-1.6201718465754973	1
-1.882045590032343	-0.18911586900092386	-0.10273463702217218	-1
-1.6763471707983282	0.06515811925363567	0.6417826802818962	-1
-1.7397243423108484	-0.05778407734343816	-0.894709371726476	-1
-0.8213068578483464	0.0037224092397443215	-0.010475060775291933	-1
-0.33683643762327276	-0.4072243182479523	0.12016666502153925	-1
1.1825535951903712	-0.15233535702796944	0.36984703134329266	1
0.9555496848024984	-0.9893343394219878	0.8522737705914281	1
0.8723903447956914	0.394677685840894	-0.969306849314975	1
-0.7927411939387603	-0.3346636788404094	0.3299530764853892	-1
-1.148881585942355	-0.49624843318675604	0.5583079967699296	-1
-1.2521229721353238	0.9313428343899233	0.32492480711067717	-1
0.5013644825333583	-0.26248813436997936	0.832380147830898	1
2.0977533460656987	-0.965727890880448	-0.909972157790652	1
1.092408481192075	-1.430070828954721	0.27293576154571775	1
2.557118042241589	0.8375378474408932	-0.7228036879682819	1
1.0585299466139426	0.7071675518112968	0.5661001728029049	1
0.4453459088852335	1.3455848053899317	0.2870606593269531	1
0.8518743811739271	-0.4901989621925099	-0.5653811509458778	1
1.0614504506149358	-0.08395351963821396	-0.45630108797310576	1
0.9762895009670665	-0.23891809893813626	0.9831083222927275	1
-1.9072971911830687	-1.0389050483348137	-3.534347426585001	-1
1.5207604244741408	-1.036362184620794	-0.6958797422205244	1
1.6702927121052689	-0.4625437514079015	2.4244024912898974	1
-1.3318512232015254	0.26928399410782317	-0.12631721178780567	-1
2.154040260686396	-0.2788461621805014	0.46330127656541786	1
1.3672912408236029	-0.5258485532966015	-0.984769005220414	1
-0.6054088820820636	-0.051064407046260876	-0.08444304526796934	-1
-0.20233497475280285	-0.19612331862339852	0.17835982518482932	-1
1.9290172507408645	-0.5422083376081863	-0.9543413864934476	1
0.7483682654674986	-0.7680236403302232	-0.7977673636226906	1
-1.0013232596117176	-0.032418207494368356	-0.1894379094031396	-1
-1.1421953129161941	-0.587612654291314	0.9963929897649073	-1
-1.2063171119193281	-0.6196026302532909	0.3652883457377334	-1
-2.8116978557247387	-0.3446293066646451	-1.510036669893402	-1
-0.7564700936072488	0.6692649229597629	-0.8093625582275346	-1
-1.0851967506646547	-0.44556019944962233	-0.9515597729378724	-1
0.1326838849615182	0.24218503371932826	-0.23561523052037228	1
-1.383978665127708	-0.6545207131020145	1.2152601073620355	-1
-2.0862528767837096	1.6048525875795296	0.11995482525727692	-1
-0.5153473911854254	0.0983135944547002	-0.874756445107874	-1
-1.6917097306654894	-0.03611276726136299	-0.2871325739666465	-1
-1.5431749493149403	-0.32190333468138554	-0.7903146352180006	-1
-0.6767438270367363	-0.8330544859596267	-2.4546169065824297	-1
-0.6010739087608133	0.6554424111714658	0.2865519268363994	-1
-1.2890639656452376	-0.3210975376487653	-0.27105888826746577	-1
2.5824043655868825	-1.5237552047976517	0.7189364725182387	1
1.255358110107435	-0.40502881055881124	-0.0007477942257330839	1
0.48325193082495366	-0.8218040137988539	0.6836746991196733	1
1.2820049212641398	-1.171714863639501	0.660979482410705	1
-0.8721951876866882	0.20577258920577582	0.44254385110364924	-1
-1.0263667017608715	-0.37452833638325844	-0.8259150929406751	-1
-0.21446051603800623	0.15789375858066965	-0.030418978416904004	-1
1.3443725168436729	1.990550598172382	-0.6588270948531024	1
2.589744594106139	0.72980540693298	-0.0535028497094283	1
0.3632002907156282	0.824523708746038	-0.6347244997196355	1
-0.7114556600265313	1.1497297338083454	-0.9956585469170072	-1
-1.312885062533851	-1.0176012618254766	0.7014845583710626	-1
1.0944459182563566	0.6880193621690651	-0.3522156458987806	1
-2.5960170042609976	0.7330498087243655	0.07681777566244455	-1
0.8387219336632361	-1.343703679956333	-0.6115229789257668	1
-0.43995119447445524	-0.5152522826718927	0.4170081791360019	-1
1.4791584054470834	0.705012466717744	1.677492093833414	1
0.954299693107232	1.0183925363265354	0.12492961521534736	1
-1.86715480671995	-0.25599263017929386	2.00847838037271	-1
1.6270419463800274	1.1545498508400371	-1.0271392785227222	1
0.5887422099865967	-0.5660452650831014	0.615387965198348	1
-1.6983521121940521	-0.3400499751754571	0.11801496777276699	-1
1.0593777418956187	0.36807046633644963	0.6362526344966386	1
-1.3325089521392954	1.2993359584636126	-0.20647145792791904	-1
0.8122545458011291	-0.14374105320203062	-0.11521450179408327	1
0.8470363504518403	0.4719582183342538	0.30733416797395885	1
0.43936368282872756	-0.6363121153347626	-0.4236723547251654	1
-0.45480832254923903	-0.3774907495806115	-0.24942284123369912	-1
-1.5145879702593321	0.32410881702380245	-1.3079110800041456	-1
-1.5480852393170095	0.6908446701978226	-1.5598239299340542	-1
0.8239682555727574	-0.18025576564298135	-0.3044677342935543	1
-1.035264899742194	0.09014727542548448	-0.16617873857114424	-1
0.684842218892356	-0.4228781272147813	-0.32479056756395863	1
1.563394034451096	1.0908660338157787	-0.8183581665494534	1
-0.360935364144033	-1.4402450067160377	0.49185632493334686	-1
-2.013638074208582	-0.8107072856177316	-1.001988570899407	-1
-2.3242831996184137	0.21078114716212565	-0.22599689453788008	-1
-2.287120873176478	-0.3120645832156115	-0.5905969149105714	-1
-1.7542065439733272	-0.6866407141728633	0.4412498855278296	-1
0.19628533746641966	0.867817503482535	1.4393333790020035	1
1.2671063446640196	1.1114620527905168	-1.3966439900192924	1
-0.3241245145833516	-0.31054740791531654	0.013444892358184067	-1
0.902733437298379	0.16591546131192972	1.7499736468117582	1
-1.3412409594551304	-1.3465695222224554	0.06794561461861025	-1
-1.502272700332214	-0.6803239749801189	-1.5196813270117677	-1
0.42792971476552744	0.610300423136996	0.22315647785168527	1
-0.7033478233305799	-0.20302495502738283	1.0734452909326144	-1
1.1314880828415954	0.6736397893692707	-0.6502073812654467	1
