-0.6394006917292224	-1.5970010729492712	1.011306459975131	-1
-0.7764996346616782	0.9657777980182877	-0.21595087068759694	1
-0.013928438280656388	1.770664190272846	-0.27968356778055725	1
2.0248514466319474	-0.6901230772816107	-0.09047862678275598	-1
-0.3385288939365977	0.9822159209561858	-0.31391467003298246	1
-0.5593096041728683	0.8616470035755542	1.638131579306394	1
-0.8911403187409788	-2.2846322499013327	-0.8026010963437293	-1
3.0938817289048313	-2.53063560107782	0.3033414689058626	-1
0.2500004255696932	-2.485767818662783	-1.5774508410100894	-1
0.2476614461116432	-0.8082748366923402	0.7032165302383488	-1
-1.4021596134331107	-2.363296124219322	-0.433656868789696	-1
-0.32638843977523946	1.0775796457960243	0.05394004994418987	1
2.2896781007325275	-0.708785647062201	1.4867853615651856	-1
-0.3998823881552314	-0.6220031813811451	-0.039911472598893924	-1
0.631169679004479	-2.5184404735060415	-0.9093325213863015	-1
-0.82034979102991	-0.7985214247806809	0.2395872616078807	-1
-0.21542329892778156	-1.7453714611674311	0.6603567661313383	-1
-1.1215298332602461	-1.4726520121834432	0.24755169140449368	-1
0.38193683634021935	-1.2996236219718564	0.6773732298401425	-1
0.24075457636537695	0.5926476173932507	-1.3053644374275386	1
0.30671856648001444	0.8013322617532086	-0.7672446675954228	1
0.11589577294197242	-2.6978346364081807	-2.7935895536055098	-1
-2.4011046370988502	-2.4384542420674773	1.3360402519456454	-1
0.9866951859782236	1.3726273976423213	-0.47131986179726837	1
-0.5485885508395622	1.505880591580626	-0.3009461570836761	1
0.17421538677577053	0.17403451626612323	1.6422131511218896	1
0.44558576826088325	-1.606890799039393	0.3646899345737343	-1
0.33627597020168115	-1.6730124000880422	-0.9912842765914142	-1
2.6585441894599207	2.4523972810274097	-2.039731627517299	1
0.30290186068828967	1.0714117021953382	-0.3273236364010337	1
0.2799852074069905	-1.5554513086558628	1.0077743650054622	-1
-0.4352537201765592	1.8284390010825504	-0.42138506491298694	1
-0.126449460648321	-0.6730345558814324	-0.12642160217012366	-1
0.8378828752856397	1.8780468407427382	0.33354080899370897	1
-0.7213919034632619	-2.884387975390669	0.30676144688554324	-1
1.5875331843199882	-3.1948535444639146	-0.3090840658873236	-1
-1.3616086495895097	-0.08230199299984818	-0.6829232070425284	-1
-0.9586088136786565	1.1485549407838553	0.6465071254249508	1
-0.16954047420613555	1.8440420256621883	-0.12607291737192672	1
1.5684361353420482	0.966828190168375	0.12319221707414053	1
-0.46320255569002755	0.9986114753616435	1.114301489979258	1
-0.045186016414248215	-1.6999083435797546	-0.10674400839587331	-1
0.1576281107755341	-1.2074089966676307	0.14843662067733404	-1
0.5015462042710387	0.8738395174056467	1.0283506735846428	1
-1.9460820051841987	-1.0521892633372307	-0.33626178319634836	-1
-0.9830596494103858	2.0971840073722703	-0.09153703874677269	1
0.3754869993154251	-0.9243635920885813	-0.3342126448416627	-1
-0.0269657161289428	-0.3946229315991401	-0.6875408604223343	-1
0.03026044695978181	0.8770635548918801	-0.2883201237434639	1
-0.8967891297055212	2.8909556993960823	-1.6875096364542979	1
0.6705261121540449	-0.704489766433342	0.6147959745220016	-1
-0.2461647920369493	-1.007567677927474	-1.1021334358316373	-1
-0.9690647560350617	1.2567589516801425	-0.7127869881789974	1
0.32477143508308653	-1.7818237013712042	-1.388178843367425	-1
-0.046419901300081404	0.6292443039762333	0.10265104645257796	1
-0.09324196437886856	0.3847531918803296	0.42908878218052815	1
0.10557556724938089	0.9194847199212766	0.6832613815199752	1
-0.40640282937121835	-1.2266264530961026	1.4666864213601754	-1
-0.6825842596272933	-1.5142739941506218	1.121863696945689	-1
0.35915813689879206	2.1510808184124994	0.7746797602471511	1
-0.788492686646763	1.2503632439369108	0.719792654628405	1
-1.7072712318556547	-1.1870881089258185	-0.42298438542526845	-1
-0.8368369542867709	0.7720316208028364	1.2241745796508336	1
-0.027051582007540754	-2.2389594933091224	1.4005933046024261	-1
0.1353373836918853	-0.1554313214947364	-0.303444082793153	-1
0.21784938748381355	0.9706338456711103	1.2526053806552413	1
0.7266342416081486	2.069617380867788	0.9925918599553293	1
-0.16852345664015234	0.3314449822458535	0.870358910726666	1
0.1453495062708718	-0.7759232412517614	-0.004647949526730216	-1
-0.6529091087153809	0.6643136612207597	-0.927049015495241	1
0.033963548384003846	-0.9143742714576987	0.15368041933594007	-1
0.46834943478644564	-1.3608322143707716	-0.12060607389387967	-1
-0.4553301431814707	-0.8175597052339898	0.4385665725324589	-1
1.2532399504997391	0.970804642186627	0.47188235502720555	1
-1.0058743019880114	3.3150064056405797	-2.4593958841478702	1
-1.0424217330288568	-1.3319976831299147	-0.35055269846266723	-1
0.21352988007211626	-3.014493422874532	-1.4304469271036653	-1
-1.1414377867445222	-1.5739892319879205	2.1413020935031613	-1
0.24553401525465612	0.6293235786186518	-0.2970593473266189	1
0.8197923351203951	-1.0182189886317357	0.09451184513751124	-1
-0.6405785279024727	0.8297372003669312	0.5880122757924942	1
0.4759024133505237	-2.664943878074257	0.296298709778655	-1
0.2068625392441751	2.05376561877118	-0.3566790473913839	1
-0.21983481775878094	-1.2188209558187457	-0.555528929347773	-1
0.3454943083158497	1.927757396749086	-0.2079255056846222	1
-1.597797152440621	1.7791089297535363	-2.739543046879336	1
4.0291699956624	1.5034016825832133	0.6195198382314991	1
-0.11183225742109709	-0.5654209086839379	-0.3399511094179186	-1
-0.4254837306622987	0.5437356569613447	-0.06728439705872044	1
0.1942887733835228	1.2709905424765835	-0.08154011468172306	1
-0.9463032170717255	1.2272660541999225	-1.1521299944179888	1
-0.5803066550999136	0.5501266639210716	0.45386607132139983	1
-1.548432131038685	-2.0327514538663527	2.610270599008392	-1
0.30026356545005045	0.6585300324162071	0.44884715714583157	1
0.08621017943252807	-2.213722914267152	0.2146587607979941	-1
-0.21605425206593676	-0.9733185721686102	1.4033991421618357	-1
-2.1354689327471115	2.5299674336537508	0.06461074423154048	1
-1.7848794393071956	-0.36945183078344257	-1.7237073780364085	-1
1.0385982891026968	-0.9956845994380022	0.2579166980647968	-1
0.11527892957776621	0.4005097898312272	-0.15425534808825636	1
0.2499183294488503	-0.7355010323785725	0.9968690592778141	-1
-0.19032369855882297	1.0765615604981424	0.9077825004545133	1
-0.038604142448847405	-1.1178661885650283	-0.27383848278923445	-1
-0.07688879565691066	-0.8374973931525054	0.261086235676948	-1
1.4413142505632837	-1.3118082548399168	-0.08526538459114942	-1
-1.1085251930369755	0.7840702836858987	0.7443061657619318	1
-0.21845355364741628	-0.9033588877696022	-1.0686558743862369	-1
0.1375295229293868	-0.6571722844322828	0.0817965301925393	-1
-0.06346472261079095	1.8862005840717266	0.1325728307941028	1
-0.07277646257475884	-0.7484727227053203	-0.05071367845521125	-1
0.36411538775941854	0.779333563139213	-0.20491971223266872	1
0.24749122002685792	-0.39102867427512666	-1.027370384711047	-1
0.352310573483231	-2.0707005208447606	-2.376130705510641	-1
0.16535411947503859	-1.2835269754551009	-0.5003666648709677	-1
1.5844380557107076	2.4113683598268842	-0.7570798861391044	1
-0.6761953588339825	0.6472161897281454	-0.1525796852900281	1
-0.6497764140513267	1.788339879401804	0.6644628185897367	1
0.6079862666447611	-1.2637237126246013	-0.2331605840425725	-1
-0.4176424952091742	0.4204132365085914	-0.015089389598495942	1
-0.02757082369623282	-0.6118721485190511	-0.0953126992893496	-1
-1.725207130305453	-1.1769215958237245	-1.2302546027978962	-1
0.500581306558261	1.2340006515537398	0.0550068542894786	1
0.5631276223501092	0.36094090907930926	1.3420220642143088	1
0.3959981499438257	1.0294252154952932	1.6656100098632383	1
-0.08582672975523116	2.3955059469033246	-0.5961277237476517	1
0.7369056278362516	0.8870424020610007	0.3225254951597172	1
0.9250877567687976	2.7066525254021974	-1.815076050835637	1
0.8717310637853198	1.165471497162595	-0.44261244902019925	1
0.47946432862472427	0.4137123109474431	-0.9656034961353233	1
0.6862834166608556	-0.9176053774404922	-0.48908914193309677	-1
1.0990695038243357	0.819279300234258	0.7045429632505982	1
-0.7324841111783218	-2.24219073221029	-2.8327340082184547	-1
0.07654788476791172	0.5849718339474363	0.3618047835830072	1
-0.5206099027943536	-0.9823921283289732	-0.9445640171888484	-1
0.7908085096246282	-1.7370617798036436	0.4318354159833845	-1
0.18529912268242268	0.6125807184051568	0.6512910875750031	1
0.04965296205965476	1.2213282479187018	-0.5625202802961939	1
-0.6359078267801113	-1.0373170077771543	0.4409539236933713	-1
0.0009683465764742855	-1.0978830234862236	-1.5224701514793966	-1
1.1531338085653433	-0.6868363759623981	0.5637296057835073	-1
0.9901293625316303	1.5523790440577905	0.5775308990519255	1
0.4001451208340291	1.250834442044999	0.025999604760145116	1
0.15333633752519132	-0.8554978193989734	0.49999723156572284	-1
0.2257477855115351	-2.097604440549712	-0.8508382942578494	-1
-0.08448199351462118	1.289074350839717	1.120717496778845	1
-0.3685673439835396	-1.1264125225348913	0.9185889666344422	-1
0.44945069023702655	0.47180150036864377	1.4288680444242443	1
-0.5923551154723916	1.0815113494683857	0.137845650920311	1
-0.64449004091726	1.4563388976423282	0.40290532015648767	1
1.0292387872897855	-0.39329727239517465	-0.5634001976696466	-1
0.42325375992188397	-0.8528184060197288	-1.029066935423334	-1
-0.3580930932738489	0.23141636601233684	-1.210893716237553	1
0.007548664912269886	0.5245526813587538	-0.13729603252790354	1
0.1915443960039256	1.5856484893451857	0.2694109567045444	1
0.17826868131717954	-0.8320695796087604	1.1029847513999467	-1
-1.0937270043647316	1.6605390948929994	0.6691115348347629	1
0.704482442851298	1.960762704853313	0.2057559119536534	1
-0.8659282727565372	-0.9669930240813365	0.37026277052201795	-1
1.7880287479160606	1.652248142856187	0.3092698976189028	1
0.37140291935033587	0.47020966071250836	-0.08847991722170567	1
0.29745194436787264	0.6861210163890463	-1.4401001611621629	1
0.9796074985827492	3.0357890835089028	1.2201461445097612	1
-0.640431476071684	1.5901160969235575	0.10954384342770614	1
-0.9119450488754448	0.8864185988673491	-0.06051914452318672	1
0.8761015239757828	-0.7606448922240674	-0.022078400121280792	-1
0.9186097622731366	0.8097094705144722	-0.5271296305235618	1
0.27507986207421087	-1.329564514891245	0.345317731331857	-1
0.590081445195193	1.600455102319144	1.5393210572559357	1
3.1576110953785665	0.9907926123334702	0.5942889171335269	1
-0.15029691315787064	4.097703784598721	1.2518585319717714	1
0.32924230957187683	0.06224273651872459	0.2023358030678351	1
0.37868970442178185	2.1368952499206952	-0.22118573312739293	1
0.44338823376417646	1.2120841924277355	-0.5473411303894855	1
-1.7022228906947448	-2.9148046373472316	-0.6752921125802789	-1
-2.0408705421451776	-0.49582900529190843	0.46294555660703596	-1
-1.2311946432394705	0.9133132580743561	-0.27525943770839967	1
0.6206322263632895	1.6944839639435618	0.03854232161811349	1
1.10847140311463	-1.0933302501541582	0.19828265232881986	-1
-1.5427620887402806	2.5207919877678124	0.2407378103666688	1
-0.55799214143301	1.562188260623123	0.5419566354245704	1
-1.1575240790403776	0.657705202855477	1.1159615001810936	1
-0.08897021084404674	1.4086056916268614	-0.3060385189774459	1
-0.33750235534353284	-1.0346882248627414	-0.3427944029795035	-1
1.440136015244199	-1.016227128132451	-2.1261486810005383	-1
-0.5700392523101218	-0.8181102960598474	-0.2006277488620112	-1
1.0748823093650024	2.515968252299799	0.25716767044128985	1
0.7599750553206621	1.8413405717491047	0.4159845270128991	1
0.5223337137829501	-0.6958151929282645	0.7066251538161042	-1
0.37866184045301976	0.8370252159160071	0.3371932198001345	1
0.35918329069085475	-1.2898410106299436	-0.13560397591270223	-1
1.5462483334420298	1.3193995605450124	0.5627147284896902	1
-0.6398999658044446	-1.2623590324346363	0.40604888620727086	-1
1.3687800552950595	-2.2534068104605556	1.5075983561163222	-1
-0.057418097415021775	-1.4588420947358325	-0.4706244937498967	-1
-0.9893567550035819	1.3937140422195626	-0.9570115131112479	1
0.3662447035515142	1.352592331975306	1.0847899947087765	1
0.7397237388641843	-0.4091339950932362	0.1032654163507602	-1
-0.48602336066145996	-0.7562330828198593	-1.320607921617342	-1
-0.9520743229269027	-2.6667427891224897	0.19073147269708404	-1
-0.38403074818747857	0.6001840638551116	0.8686446449565159	1
0.021807793334536172	-0.7472152610056788	-0.0321469815198048	-1
0.0640561956833621	-1.5483099395555349	1.3742006949293357	-1
1.2861159383227898	2.4912465437050244	0.8890816287916313	1
0.3597074783497012	1.546086775852173	-0.56965615645213	1
1.3861180102022053	-1.6381753738517768	1.4136752254133556	-1
-0.5071155177774662	1.6599608690482657	0.4274728725175774	1
-0.4254148551413362	0.894290944761516	-0.24117563116856655	1
-1.794199465454378	0.9464281840875843	-0.039175466875507894	1
-0.10903181952556462	0.5224690540867835	0.43905965514042744	1
1.4136228725593745	-0.8609434851513164	0.14532443531290404	-1
1.0968115405220487	-1.5470606465099763	-0.37743658248800216	-1
-0.2098717876652541	-1.2301107669795142	-1.0618755367668498	-1
-0.1510107053776681	0.6664853747755899	-0.16895926695523014	1
-1.287841049210009	-1.2814506608526681	1.4052293655232528	-1
-0.46786740398529797	1.6785447344071383	0.8415023614980656	1
0.007883703326629753	-0.6334811219184387	0.22682535757934064	-1
-0.4488961838643075	-1.9092642683622518	-1.2426302605994557	-1
-0.3355836993444988	0.6729507905438366	-0.7657440255507848	1
-0.12469205547066137	0.6942736037482528	-0.8761333140092289	1
-1.0985741306079324	-0.8475029052204268	0.060655130776173106	-1
0.466600874018033	-1.0390949471691409	-0.43878882895510435	-1
-1.110015071164356	2.0779332334378564	-0.20112311920207132	1
-1.3369842198913864	-0.4379933645652897	-0.7271537630531705	-1
-1.53136534208043	0.77055649339505	-2.125897770518381	1
0.8794444917353836	-0.8145401852958245	0.40508593445755525	-1
-0.5788812071988839	-1.0580929608590153	0.08345711015275314	-1
0.34173585362410486	-0.6932617392253286	0.5336346412675087	-1
1.3670650578765469	-1.3869945873885157	0.0020740540861490736	-1
0.3606890514398807	-0.887863951420032	0.5254660576681494	-1
0.5684700045545603	1.4294399280315349	0.2167567653896453	1
0.9113027754737584	-0.4719962028885734	0.3432731096374261	-1
-0.8547556636936546	1.0546692857266855	1.0300010074028618	1
-1.2012344277183817	-2.4044619355703105	0.33760021228335935	-1
0.023983830872702845	-1.2387079555892304	0.23010022252420803	-1
0.6270780782297912	-1.4425133701129529	0.05133676060427776	-1
-0.3389377137090306	-0.5485714944755785	0.15400454105704092	-1
1.3072789226013408	0.4723294142768465	1.371971799489049	1
0.7143863993956964	1.900967379290163	0.4874905294885832	1
0.23413231619533575	-1.1203596896659105	1.0059564084578476	-1
0.4813609869934927	-2.1141251933755187	1.7977262304299848	-1
0.348417300141202	-0.8926371448776426	-0.6184283730076683	-1
-0.045684467305609384	-0.6870643384969336	0.9975448513034846	-1
-0.7508593220231968	-0.40111703724953035	0.4709650836713708	-1
1.2769288529167955	0.9786761565670457	1.1574623872203418	1
0.43015136726726877	1.7257613753179701	0.48668856679645855	1
-0.2267895517400123	0.6924266984923741	0.17576845023726942	1
1.1970583019638412	1.1105998445087775	-1.4016985405131586	1
-1.3626569459226165	-0.5139371080575629	1.3977009374794105	-1
0.04746407292438712	-0.9541362967798357	-0.817647491570433	-1
0.17377960912856577	-1.1688855683281307	-0.5496800222579412	-1
-1.0904232568697247	0.6950696434724245	0.07422701313922905	1
0.3386949894131368	-1.280769128251232	-0.8027047632081362	-1
-0.09362932789073522	0.6413161646620258	-0.6968597240095447	1
-0.820820354896614	-0.7251683695367488	0.25714973699302573	-1
0.5789131060176004	-0.7623695491220452	-0.9468535457086638	-1
0.14405839566054712	-1.1377103495755496	0.7723814653628607	-1
-0.011316248768299883	-0.7652956347161473	0.21832480561491663	-1
0.2516529455683997	-0.3982241576442602	-0.20983198554217022	-1
0.5643093795827034	1.3199914249871108	1.8205055323893422	1
-1.106972283418592	2.063389315793375	1.014253838552835	1
-0.07956240873609827	-0.8761132226245987	-0.2517036931353341	-1
-0.7349553208955918	0.8473734732846723	-0.4795274739871114	1
-0.6390621357087288	1.1358116844287607	-1.5542713198389713	1
0.24586482696597914	0.9829306208156239	0.5378767200869661	1
-1.064373860938865	1.2389125745228031	-1.4684125683941178	1
-0.5958467336749576	0.8757611050029153	-1.0069186347796495	1
0.15995897865780093	-1.180736252138633	0.32998953886104804	-1
0.26903886635759355	-1.379457991838835	0.5473652157265497	-1
-0.44205201437667285	0.26170063870996135	1.0833226163171996	1
-0.42572886011693967	0.5846252577352773	-0.020647233312404072	1
1.25707271843518	1.1421434924992235	-0.4726896250197751	1
-0.7437596815212679	1.5235753357265627	-0.8854974925344914	1
0.7675242828398088	1.0780441747973781	0.2500924687367725	1
1.0663260033591486	0.8181847345827813	0.3400821671051973	1
0.3841462397794302	0.5240165872656048	0.7699399284870456	1
1.034640618794512	1.8685194749869485	-1.2540206674257224	1
-0.12259260473389184	2.6034263936594613	0.2658288731906455	1
1.4061710494125743	-0.5003609573339352	1.4606320072210948	-1
0.4205958622870346	1.6248188144591031	0.727439462022796	1
-1.0448520417532356	-1.5798689989318826	-0.7615295137083279	-1
0.7360874574403062	-1.2065938208634814	-0.27407534689888857	-1
-0.4303478705268998	-0.9148243402496592	0.1482550702138288	-1
-0.33890590424363587	-0.5284052697537058	0.33452168382251524	-1
1.1154787159195756	1.091657026433562	-0.33824118094540695	1
0.8531037003863126	2.3986800267012347	-1.1388538305101397	1
0.6342702110015721	1.2007334238281833	0.6696062744092197	1
-0.37164484636017103	0.5119186649363007	-1.0813710120588014	1
1.807149582089795	0.7474717568716167	0.4593454452868988	1
-1.2421226807379786	2.1424418258164506	0.6832780623702496	1
0.5845533645891232	0.6791519763647837	-1.1760482928913794	1
-0.8281317126265926	-1.1559688206946734	0.20487584153122018	-1
1.142006500148176	-1.0322498032278158	0.37169450676253213	-1
-0.08950670089306043	-1.3268518777591485	-0.6463607349907678	-1
-1.17410525005484	0.3819974363367932	1.447046653982397	1
0.1098832960981115	-2.5306224547699383	0.22237897516587227	-1
-0.09391274139117639	1.3625943591320813	0.09906090207440085	1
0.6167499446542796	0.5414871213308178	-0.009415649409669033	1
-1.5802585095914652	-1.744970339582601	-0.5326410776600127	-1
-0.2647025017536687	1.1892598397953478	0.09851012316720727	1
0.17748996090747715	1.2008538648111466	0.11022255060887101	1
-0.5492518452130156	0.8965561739163816	0.5803620209857003	1
0.7039069125498625	-0.4631023339882677	-0.13403114504906058	-1
0.8205520596121653	1.9329119149621967	-1.1899630957614882	1
0.26714090163390125	0.6560280769524296	-0.18889481672377198	1
0.6706075788542344	-1.717647499949912	0.45294438823594096	-1
0.0072087222927211085	-0.6872410314630396	-0.9391600708092442	-1
-0.20257970213474533	0.7947321020390447	-0.227353075425276	1
-0.29917721906274014	1.9014801490281221	0.6435893403609124	1
0.9386472229794448	-0.5970517867585754	-0.5469471517454706	-1
-1.1933991531679755	-1.8148461565324636	1.2926654400924067	-1
-1.4301805722706566	1.3917687661513152	-0.456943177310768	1
-0.9204471168006674	-1.222759673599037	0.49939203959475154	-1
0.5454492557446059	-1.3885485070168113	1.1174335848317665	-1
0.021249280359033798	2.6494097919819843	0.28146252275887923	1
1.1289679652175955	0.7348211314129969	-0.16474669917063672	1
-0.6746357274764783	-0.7120183901127738	-0.5158256841267087	-1
-0.1700098275091725	0.9488004409895001	0.07382637998357179	1
0.4007687270896926	-0.458643528644771	0.3710126969061075	-1
-0.2641767183094304	1.0073000949896183	-0.556080649527898	1
0.6606370494061699	-1.1911341410818614	-0.4058340297814218	-1
0.2505326718171788	-1.2563346653250154	1.0234715043634481	-1
0.603436880404595	-1.181368161028164	0.23467399675207368	-1
1.4605459662130862	-1.557915073016654	-0.7203669840390808	-1
-0.23197949801855958	1.15899223979654	-0.6880584530675914	1
-0.04997561729989539	-0.447292729771233	0.073430929706381	-1
-0.09698468848730171	-1.109286034545946	1.1413419739641293	-1
0.24045620661086745	0.5495700343027918	-0.5427492633288675	1
-1.0757993144571656	-1.3923904226947406	1.0316409654572647	-1
0.45294292138889336	-0.39520954461016267	0.03598551646697871	-1
1.2490143882531566	-1.2497888197445821	0.39001984491214353	-1
-0.8780305166312382	1.7649623933502152	-0.1960740829295088	1
0.4859429592792333	-1.2804916015608694	0.29614537964321114	-1
-0.21855198663797398	-0.9741930170588375	0.9824636239690149	-1
-0.16508456662711415	-0.9447590769814478	-1.7491564749164032	-1
-1.1295771452840424	2.209486801201776	-0.8655219696905116	1
0.9973738924184589	1.3138408489588735	1.073391754959605	1
0.44835115667129527	0.9664832107020916	-0.5580769302412878	1
0.7716092375266599	-0.40814427442512424	0.016783784135971227	-1
-0.15847179682402718	0.8851139747553263	0.0024063845430958705	1
-0.13682041517021465	-1.5843242344601687	1.1664026798715499	-1
0.8959739327018446	-0.8510983906640833	-0.7243836074803883	-1
0.8725867073420362	-2.8023782867282385	-0.5472296533513024	-1
-0.7997149831630108	1.028787267125323	-0.355354008393731	1
0.7047591499697767	1.3999631703536866	-2.710945066808219	1
-0.6400751575289592	-0.8049264838628641	0.7194479657330396	-1
-0.8063766916262822	1.219585523161724	0.22081476022525184	1
0.1271187463738061	1.3939672016846423	1.8412346417296024	1
0.6319412328747867	0.6718210515538576	-0.2964283180033359	1
-1.2154506397675409	1.6766084868248392	0.7177543029064415	1
-0.6874346576255875	-1.3494638031920785	-1.3486303982381342	-1
0.6861326386173718	0.5385319661301033	0.8577651291439663	1
-0.4986354630115402	3.5373851749625427	0.9305657829571665	1
-1.0418392736053468	0.34957581173734537	-0.8077441846452218	1
-0.288214209981958	-1.6004635809185699	0.13746529768718768	-1
-0.950150859456302	-0.9663291438813688	-0.3274455438531152	-1
-0.6499299615614393	0.6550136064893831	0.8951312673209191	1
-1.3896282853587625	-1.4830050585017225	1.5915109269803838	-1
-0.38444118821037965	-0.9194682386298234	0.1887337178894296	-1
0.8261703852266643	1.3430237568875225	-0.6965220727512402	1
-1.2306933579256627	1.401855974117673	-1.974289589014913	1
-0.1171057740108117	2.6225697011242985	-1.0405507264683738	1
0.2163530139887559	-1.3890215607938594	-0.4840538431534132	-1
1.3565555823585713	-0.805472314159828	-0.4992309105772045	-1
-0.4575927114348455	-1.2620816641148527	0.006152950210962677	-1
0.828027571172335	-1.450132275976475	-0.43939568285714414	-1
-0.17508737381742082	-1.337653422951342	0.9680766080000887	-1
0.32589538181759525	-0.5169192493038177	-0.6610567607948719	-1
0.6597628971582901	1.921676006122519	0.7170870549828747	1
0.5378032803553796	2.8544996718768076	-0.230382358751976	1
0.1939558513230616	-1.0489877936373462	0.04950874471775305	-1
-0.1778477017155196	-0.2969116531085664	-0.7825952881959629	-1
-0.8508325047600833	-1.606490273718401	0.5772872796096852	-1
0.22379356172335918	0.8862544130282455	0.8547479678303702	1
-0.12432089857874909	-1.152406255298672	-0.6038229407695876	-1
-1.1875775373876538	-1.4080737597642945	-1.1818392045063053	-1
1.7632137093302758	-2.97980486054383	0.8044072933962594	-1
0.10294364010133522	-2.146422880266728	0.05225451295285031	-1
0.17148920523702926	1.695932176773527	0.6294759840889927	1
1.1079598998098292	-2.009494084279221	1.0100332237962353	-1
-0.17856986245667641	2.142891314247148	-0.03750817196289538	1
0.0018659771868860132	1.1745218357487142	0.6574391319292583	1
0.132294982432729	-0.8430720972870207	0.18964432059345426	-1
0.2395921591543843	0.6330188492889524	1.1896303280673324	1
-0.8394983589984477	-0.7180998302173793	1.342070953854258	-1
0.284546892380231	-0.6941150208247373	0.6100542964236251	-1
-0.12548061470951924	0.7346651631348738	-0.614168048127643	1
-1.4629923010045565	1.2617891358362412	0.405763047006373	1
0.6623555457538188	1.3642848112323718	-0.6975960087348576	1
-0.8708795299973815	1.162681882653247	-0.5807456723398589	1
0.5701767203138092	-0.5631625337576478	-0.7552233654549153	-1
-1.0515985218867603	1.209820119185824	-0.613389288198593	1
0.26210397049251966	-1.3330859967050985	-0.08531131652085766	-1
0.5606074361952734	-1.3651801480512966	-0.1508566264720144	-1
0.07971787818630542	0.4837676478824122	-0.26409913003337404	1
0.6906068106977529	0.6500879253128697	0.2506728148638339	1
-0.16586169507222198	0.5010178901400126	-0.3861117774419376	1
-0.5652314427185402	-0.8262608181327732	-0.19354302951603367	-1
-0.7827693634412337	-1.8434062534634006	1.024479019119667	-1
-1.2149584831244322	0.7702462613514929	-0.4482757978960834	1
0.4043552001041244	-1.753089318332605	1.1078725140593955	-1
0.275896143337116	0.2026302792797911	0.937690492187711	1
-1.9527272447870643	0.977880164525007	-0.4161834624149947	1
-1.0014825708093489	1.4333233981203188	0.5249254313831868	1
2.1276199100809903	1.4808753497266056	-0.080143980988454	1
0.9745625236637167	0.3896311258792211	-0.9083009716129481	1
0.11837466664588821	0.8558486458549487	0.38210148571539243	1
0.8060841560202323	1.3639703758060941	-0.6487231545123977	1
-0.24050315013324303	-2.1765065082893686	1.2917964173762329	-1
-0.45558274698152834	0.9459885728055056	-0.3400390953307636	1
-0.3338399845264687	-0.4756824293965638	0.5892727378660315	-1
-0.2833564424900798	-0.41293291618895633	0.18237288640053595	-1
-0.04899699668898044	-0.9390924917895922	0.2659202239643878	-1
-1.2478134390684201	-2.2494841317464633	0.37275249054016624	-1
-0.7218973239549534	1.810231378903663	-0.39351804595312295	1
-0.9136287087035269	-1.1347147185808182	0.7553332586419833	-1
0.42486870296933577	0.9591565111921292	-0.6487389358015515	1
0.7356198973456172	-1.3789866277989973	-0.36482506095559	-1
-0.11357916197870911	0.8622057606932484	0.47800675441671336	1
0.863559385439379	-0.4881745098059974	-0.4617963513454988	-1
0.1035318796494901	-1.0461830349868118	-0.4065990591262914	-1
-1.367854958684394	-1.2547696203498178	1.2401234041434488	-1
0.8928603672936408	-1.0723448188199782	0.0604246248980498	-1
-0.0701944271271189	0.6505324397484771	-0.331137597698688	1
0.2765956776962889	1.5652291531209537	-0.15416936454899155	1
0.9501246144489552	1.1597723656279237	0.2422438934512549	1
-1.5145921520248464	-1.84531851729418	1.5835246007645307	-1
-0.2077611041108987	-1.7843472941970262	1.1907989413808135	-1
-0.2925406453515481	-0.993276906583224	-0.262310081757514	-1
0.4014256062163158	0.8165384957441405	-0.6538573418771443	1
-0.46000333122442183	-2.774257531567099	-0.2403782665548913	-1
0.3001069361288829	2.342862251884303	-0.2791309642428577	1
-1.278052438457291	1.6245545933538408	-0.8537886819989706	1
0.7110854144156684	-1.228775429702836	0.8012941418163686	-1
0.20401359324978896	1.1332960192100052	-0.3617413650405291	1
-1.4469301826815253	2.066394546521552	-0.0924595876506158	1
0.6900081442546703	-0.9913391100280148	1.0349082846235107	-1
-0.010032211271699598	-1.4629685182497156	0.29337768824774507	-1
1.5188922231965292	-3.1551120214407185	-3.0116764522499087	-1
-0.36933135904797376	0.48489438578358834	0.3882933797955821	1
1.8044900993395292	-2.3086470545991036	-0.24890902332258694	-1
0.5832513652391138	-2.2568167574729903	1.4256318170629871	-1
-0.36864528029090005	1.0395203806433442	0.14709282082920433	1
-0.8638977037523287	1.7097932935949136	0.45741458021575837	1
-0.08131341337697798	-0.2404054162264444	0.060117041416400716	-1
-0.31958619112389813	-1.5987238976142017	-0.6344197827429106	-1
0.08382953792083242	-0.7112671871488977	-0.4221283736531803	-1
-0.683534941813799	-1.3436608197446092	-0.8413308736036599	-1
0.31395235800978866	-1.6530885548874485	0.6907325855837341	-1
0.21127646048521376	-1.7593015169034727	-0.35632283038451634	-1
0.008347480514161275	1.2407040718974787	0.03987302821448344	1
0.22789201490226554	1.2479227560075803	0.4588373425460852	1
2.2148381591326607	1.9621817861233635	1.885049759148644	1
0.19072304060278736	-1.0787015529926487	0.3407568936472213	-1
0.26970156889639596	0.5354857022778546	-0.7395664257202235	1
1.0248806469311444	0.6990074781551036	-0.9489179329081413	1
0.18132340761137233	-0.2826486297828301	-0.12719262871548942	-1
0.14278557536818756	1.2110477149364312	0.5262122046218564	1
-0.3839921564877159	-1.7335076962441376	1.6861081148454482	-1
-1.905003084587269	-1.7928420625798114	2.697436081215852	-1
0.3201924813718674	1.5870393053268987	-4.9869930225056577e-05	1
0.7411377500733034	2.230689208387777	-0.55085591422772	1
0.13957535676799687	-0.5060255736802353	-0.478880774166623	-1
0.3878227681253839	1.23366670708563	-0.44726831411051926	1
0.12211567371113671	-1.8387883610152724	0.21182438958994246	-1
0.15498734127488745	2.435181721552783	0.8982953726564429	1
-0.8894302539333321	-0.8920904045881987	0.28169315716431703	-1
-0.6880847525942224	0.5178513144679961	-0.018745841796999375	1
0.20066976591844138	-1.2963324212619365	-0.4296984780569311	-1
-1.4535249738726252	1.5657976962507754	-0.7652815097141306	1
0.9599129960280022	1.5836671135242082	-0.5620279061068667	1
0.11460749869968564	0.6949221692611426	-0.52543503787122	1
-0.6607154272438446	-0.9744129385887004	0.48318720042044766	-1
-0.6040791111046964	3.0624926995923105	-1.5642145500324383	1
-1.7364324767707902	-2.427264592319773	-2.34356423748753	-1
0.07568424869197868	1.0658525402615806	0.8550516309460622	1
-0.29399907388875796	-1.1154314780132812	-0.2603653362792949	-1
-0.18335228269215942	-1.3331283948406134	0.4565354331498478	-1
0.2809505800263923	0.960598436773884	-0.08126711540474765	1
0.5428801461909638	1.2813291575699473	0.7138851044547896	1
-1.3738285207778773	1.3768410951981402	0.7596211817962883	1
-0.7921794168813238	0.6485992399835995	-1.6100546528104456	1
1.7157822280650374	0.9815051600736565	-0.7355794443894547	1
0.2946424864679897	-0.9839047204746252	-1.1377104648869127	-1
-0.28358057444579293	0.9330542378127304	-0.1851409177563091	1
0.3710853146776748	0.49413399771803457	1.3850100214679062	1
0.0027409128055581864	2.764794599648625	-0.5752665586264171	1
-2.3275923836002357	1.5515759606578021	0.07893895866227141	1
-1.1460647187491348	1.1226030968907397	-0.5568580466337065	1
0.17800315727787921	-1.3577840986622303	-0.270843459600442	-1
0.004253167646080844	-1.5294784880084502	0.34662207181854576	-1
0.18506256969141505	-1.1508306841670677	0.17030562356896817	-1
-0.1412998565552614	-1.0237043479297963	0.166668237793955	-1
0.407508675379879	-1.4103860629639264	0.09508857842060621	-1
-1.064762760359519	1.1767781631092478	0.688442117405562	1
0.20124580500613487	-0.3237481122033471	0.009177142708531292	-1
0.23946968176406191	-1.5813271121354604	0.471249927564931	-1
-0.4854304870332966	0.12277332660548208	-0.04583736710214513	1
-0.08790654496353498	-0.7366796050803637	1.4919526902672406	-1
-0.32023084674951485	1.0991969995947217	0.1498729972188185	1
0.6362769366609246	1.510901275905692	-0.936280035140802	1
-0.7973690449674439	-1.3215434034441378	-0.39647100283096104	-1
0.2361657587067681	1.3525782910525237	0.7443656862062848	1
-1.1935289081229745	1.9476448039742638	-0.8075836581806073	1
-0.3076398015647	0.8532692434547866	0.1429647158667453	1
-1.8550575438598509	-1.5535153528031067	0.9639687218500571	-1
-0.21794995633523184	1.569398983257459	0.08050369511941546	1
-1.092574647099696	-0.5067519754450426	-0.07425339840644796	-1
0.6552860963603453	0.312848190730574	0.2022081426006528	1
-0.35728946592947153	-1.5784656064661438	-0.708107452769976	-1
-0.14096670080768525	1.575019768680359	-0.2147737576704239	1
1.1911150573524096	3.5762629574737006	-1.4023764228064493	1
0.0189042571542459	0.24764148185721313	-0.25162397036140627	1
-1.0720065300033372	1.3020646365908375	1.1107350829744875	1
0.8328482775031878	0.57296590723189	-0.05755411705999459	1
0.11299214869219926	-1.9331095413498693	2.6652109868986473	-1
-0.03339473631508315	1.0309443856359684	-0.41909376919171837	1
-0.6443109325560961	0.7740562644002009	0.27611988059241094	1
0.12724747043468768	-1.1273937597522978	-0.9686522643376199	-1
0.6399265226342542	-1.3960383905166314	0.26771670424434746	-1
-0.7804743831678437	-1.4516506503679607	-0.2974444839325757	-1
-0.9623357773250666	-2.9857755759907194	0.3560474617690391	-1
-0.07799395237717828	-2.0976696371188863	-0.5885664336013147	-1
0.4604221663860847	0.5199997499168264	0.048326866301099086	1
0.8129338634802676	1.5010470953495725	0.06277085248569153	1
-0.8871400534320399	0.2401637325856232	0.9020458637789734	1
-0.5642198365375632	-1.051720756001321	0.40410186570317946	-1
-0.2940064654133392	-1.3568601320012637	1.1759951503180033	-1
-0.9817905446114517	1.2141364997225672	1.123118048400337	1
-0.1954155545688071	1.370886940760645	0.7960565140211148	1
-0.7137407585403417	0.7262804754523984	-0.16883921549043812	1
-0.8717444116141874	1.3694953304525959	-0.5694030314608803	1
-1.1871566521755188	1.9792488081806137	-1.4105657774830829	1
-0.8634744440265512	1.264171946471079	1.1635755391406941	1
0.347520184582813	-0.8413678614264933	-0.8561837554054775	-1
-1.5837434721398518	-2.0721241979742953	-0.29309698173385856	-1
0.16593028706366875	1.2836355147973992	0.34270781977852705	1
-0.9728092892778318	1.1125371881258774	-0.36552098861043736	1
1.4713941905883614	-0.511865072169876	0.9328668338332263	-1
0.13595074093434145	-0.567431346937243	0.6604541977572567	-1
1.216067294151822	-0.6397133429698627	-0.08881941113036049	-1
-1.8240652689151529	-1.3725212798511586	0.10394470321082452	-1
0.08497030709758258	-0.8052890283434739	0.04503913543352745	-1
-0.6977547796073733	2.531289988709542	0.557226547967121	1
-0.26441029640072394	1.5218608613769053	-2.782961121890618	1
-0.7542139838508636	-1.254042760092071	0.33667730388141426	-1
0.21142726001815315	-1.7622483973415346	-0.09539697657659253	-1
1.757409066770999	1.1277714701700632	-1.2389895189205242	1
-1.3950932250500303	0.7075822601185991	-0.08169339113457387	1
-0.46852603845062424	-2.460055166566749	0.04570913799706269	-1
-0.0959334981728173	0.23167743244712372	0.31171264068909504	1
0.8486609846465321	0.7211079229534302	0.74528761055866	1
-0.8341428278108101	1.0328223634314906	0.4071168347875611	1
-0.9447423332713718	1.1678506903863726	1.6510522301052204	1
1.2390479512195656	0.7380771316297118	-0.6804481214883744	1
0.8673815650690428	-0.964181389592663	0.5737438561183709	-1
0.807176031273209	1.7576962749826173	0.7333949524699422	1
0.5307451020288076	-0.8457065787024045	0.3953007592123322	-1
0.3356832651577346	0.6428956927545226	0.03120930704930687	1
0.36597173672134714	1.6082605798580112	-0.1153524964758165	1
-0.5265058219791507	1.6289391856428503	-1.3343496186396626	1
-0.8130729128716647	1.1425395159964271	-0.19877204313126953	1
0.07164359741434675	-1.0575480695121353	-1.8594638737563465	-1
2.235770490776899	-1.3470344903272014	-1.0394539077514737	-1
-1.0794856755135072	-0.9881211919384327	1.2405667316590554	-1
0.26541678049765316	-1.1395077150993478	-0.29178801585869596	-1
0.5066876604400077	1.2655982538965453	0.9703915645696732	1
0.7055094669921795	1.078450132942673	-0.17028873820220136	1
0.7152966431563527	0.6284295972359472	-0.7598776822536701	1
-0.6522441401211837	0.4557217578990694	-0.23964341251325166	1
-0.18425467783862753	-1.104819433762406	-0.9060150508175907	-1
-0.2682288794024961	0.5621865386700668	-0.1709086761170268	1
-0.45611144669129616	-1.9208929149967706	-0.43071568632433205	-1
1.1527476013367235	-2.9569377384834237	0.5131180696099511	-1
-0.04038640462527624	-0.6106983907161246	0.14662501581933757	-1
1.2299913858563873	-1.0356692270873165	-0.17405536374316566	-1
0.008307408570020517	-3.7561685874155373	-0.8971390028111214	-1
-2.2056185506863324	-1.3048695440283575	2.060544887873424	-1
0.00620843662136541	-0.5058894802215658	-0.22767106948446897	-1
-0.3394111901742125	1.5849224118401657	0.9833550155241246	1
-1.2236485276353335	2.116452433081059	2.0588683948779067	1
-1.411554253909291	-1.8261099794770195	1.035490639742739	-1
-2.037353483424871	1.1403618379109979	-0.10075525064801269	1
0.033716664770321945	-1.919986503792491	1.0355461197867362	-1
-0.897812686800847	-0.5486533351131728	0.7701770615997705	-1
0.27014311612056585	1.1836594293320473	1.3179426617559646	1
-0.053479652118737904	-0.6089100931714093	0.3198219999772167	-1
0.4004194844502341	0.5537795588304435	0.31989769919986977	1
0.3419886420946747	-0.42895630216061603	-0.15331867628650042	-1
0.18224534738386358	1.3284927277993357	-0.07024297705304414	1
1.7785698734192623	1.0496075507803069	-0.35773898659503245	1
-0.9851518601978309	-2.6761460937718367	-0.504522213023463	-1
0.16331386727479458	-0.8560243786114655	-0.6942149221268143	-1
-0.7546320245659409	-1.5253317349896396	0.4286040847364947	-1
0.2525533614105556	0.8118325456889363	-0.014303957551055228	1
-1.4155134337321464	-1.4960319719886546	0.8607082980149109	-1
0.18789897434060587	0.6243022637960011	-0.38850200155854997	1
-1.6131084080909255	0.5082746235889218	0.07803982659629333	1
-0.8473715216192361	-0.9978704445080775	-0.7132227866414862	-1
-0.30133938082014255	0.7526821174731744	0.06767777143558767	1
0.7842585153672649	-0.2722687769390051	0.5552293167006717	-1
-0.21185862291710936	0.7763273432259912	-0.7473828189934557	1
0.7119103180347908	1.3549628230958632	-0.3088191806229812	1
0.7471665150418696	-1.8689885987486115	0.5027924504330801	-1
0.11319172625129137	0.39582080347406406	-0.34009850840904743	1
-0.10988879137548313	-0.6968727194948066	1.0876114124048317	-1
1.4098813282379448	0.2343681682095721	-0.2917291826267584	1
0.4292461039591196	0.6650973253858592	0.47873149669179865	1
0.6493353403608593	0.4965447548669466	0.1857735503075676	1
0.6315431356011157	0.9352434062173872	-0.29866853001849736	1
0.7462537240874763	0.8483751257881338	0.48710353494242953	1
-0.8046034463813255	0.812766065570909	0.5652749004864537	1
0.5014755418922358	2.0992620377982614	-0.1338295114018917	1
0.3073018065782155	-0.6231944464559127	0.6487708371901497	-1
1.866294201002866	-2.643264201730273	1.0900595941480522	-1
0.4273349956224197	-1.2900611413096925	-0.23422602091623396	-1
0.7748649176908061	-1.011053542606308	-0.06394903889745113	-1
0.580417220860389	2.996901544619311	-0.3116162831077189	1
-0.046314692530721596	1.326230997851875	0.6170979976545337	1
-0.5874651596252115	0.7422537453858185	0.20620173780938814	1
-0.4957106724859722	-1.5868772374218607	0.0511383769607463	-1
-0.4608200393055992	1.5800136740710906	-0.2120199132084645	1
-0.11996697637007521	0.9179036954101973	0.5854290230675201	1
0.929191709884617	-0.5262851379089448	-0.5068019943580784	-1
-0.5066294504258602	-0.9168379914119248	0.4539270234859845	-1
0.7550482925590831	-0.968242865060784	0.12909321962003098	-1
0.4146224307672963	-0.9662882158098395	0.2349152940165752	-1
0.833482593653276	-1.9381226413656036	-1.011353799386972	-1
0.37157839339002013	1.5233811956387586	0.6066816050841883	1
-0.9392978718549477	1.877314166662131	0.8848396515149883	1
-1.356698464426227	-1.7857571426331005	-0.828501419326364	-1
0.7655814668748852	-0.9296107081460134	0.7659676268943217	-1
0.8486218272381694	-0.22906846793877422	0.05982624511208676	-1
0.42675358188266255	-1.625753193545135	-0.5223539624526816	-1
-0.6362976049225189	2.0840257646260065	-0.4660849112436481	1
-0.3181066987020963	-0.4780065240756698	0.2538397321300946	-1
2.230820640980469	-4.3401801593695755	1.0698369296515684	-1
0.02887693858347701	-1.5019316667036153	1.5196319305211627	-1
0.03429644027618238	-1.816013285045143	1.646743383771491	-1
-0.005665123631525184	-1.4542702737425852	-0.3933849694431124	-1
0.562787176000724	-1.0654110464347109	0.07536513582488782	-1
-1.0838070149964818	-0.9804299427887655	-1.745290040186446	-1
0.9260641881018975	0.5159627216862476	0.1950187506090158	1
-0.2064164350283634	0.9971032753056722	0.6401410510031492	1
0.8701994985527739	-1.0515334882904437	1.1492194589245908	-1
-0.4427608638423094	-2.8652182972112823	-1.2858875133040981	-1
-0.10835550673469982	-0.5059397877321419	-0.027181787046727596	-1
-0.32234124403738607	1.27009671326366	0.4302229948864374	1
0.12345484388191925	-0.780699410220171	0.6891822643708452	-1
-0.3357594719636652	-1.5714056756669355	0.10772604772287075	-1
0.6032742968696818	-1.8750492250670936	-1.327976134342088	-1
-0.4075224575218029	0.32978581005965646	-0.12834490938670023	1
-0.741062252501748	1.1224197844560182	0.438005715299312	1
0.37404576424233127	-2.034464709255996	0.06812865508997967	-1
1.5322814448486164	1.4114163254223642	-0.43691281594504755	1
-0.055568307824823665	-0.8621746433096062	-0.8539994357407645	-1
1.2532494532035292	0.3472403641388647	-1.1321295929808786	1
-0.16626346372989603	0.4208087501471745	-0.058986483408899094	1
0.7809945617170833	1.4811042184541041	0.6440256971711884	1
0.14704858667180426	-2.0771605720085926	-1.228552200591694	-1
0.5038254135927833	0.9148368401331675	0.10993521830620248	1
-0.8662316771805807	-0.5222233865370393	0.19539212423804403	-1
0.9670015236305125	-1.7424980328513355	0.1124420333708431	-1
0.8272028531684522	1.3225362741426285	0.06853759978112253	1
1.2002385736205143	0.7888703540109444	-0.1023842074575835	1
-0.034884304862716625	0.44494529299252866	-0.18066517234432045	1
-0.45194443258225286	0.9995188503719985	0.4507602743172291	1
0.26062501908712854	-1.537804504241719	-0.47962784919132867	-1
-0.09558704714769256	-0.8940413987854849	0.22357914910101165	-1
-1.1573695868964797	-1.2615705055697015	-0.8229033718391283	-1
0.4550075910744916	0.9706480278347536	-0.8815541017735279	1
-0.9151076003637068	-2.2736374565341273	-1.064900604064622	-1
0.21751570322032923	2.185367079312114	-0.05062723977639273	1
-0.024850927788416362	0.2353504362140707	-0.8675742428262502	1
-0.6779815684372129	-2.712135194687442	0.5106846894523832	-1
1.1925146965544022	2.169912911362352	-0.250832976464834	1
-0.0003679737292681621	0.9229637022607029	0.9097447481551042	1
-0.10422662084918079	-0.6450778285477882	0.2116050075852478	-1
-0.7341096043698891	-1.1534144450905404	-0.5250520900538742	-1
1.0597662497051028	-2.0763787032191727	-0.9730348774326277	-1
0.30625793569655013	1.2512510569259048	-1.476803214015246	1
-1.0552460429323691	1.3304181912526873	-0.884322828571593	1
0.3626730925209899	-1.2532173293156417	0.6044794140468033	-1
-0.2670093893076273	-0.8635100199548101	-0.014608353645507204	-1
-0.05809118726764641	-0.2781257614742784	-0.049356785660643374	-1
0.5157056915484642	-1.0257366071018172	0.19172088880308275	-1
-0.38554074452100395	1.1700988072264822	0.4383052605031953	1
-0.8409400082036609	1.0233726032878485	0.8001804441817553	1
0.2953215838893142	-0.4707458745969032	0.5974119871029542	-1
0.5653629766758949	0.44211050395294016	0.025467091299003892	1
0.18219005383091752	0.29893088459240236	0.1621473819020982	1
-0.3845759013533736	1.755916705606844	-0.2979271712353702	1
0.7433467760883969	0.587567532216914	-0.3486555390595476	1
0.18105102725170313	-1.2860042095721318	-1.0779482675620102	-1
0.48684146786331894	0.7982314212314523	-0.9532153689275465	1
-1.8091462904430586	-0.8948812486277558	-0.9746687006574338	-1
0.7634880786732208	1.9792518983036063	-0.509247275868298	1
0.09299303471770595	0.6882490527334961	-1.5047145589809547	1
0.17581016108882747	1.396276215054959	1.6710803181179337	1
1.0835378686484072	-0.4766365198971291	0.2586894392613047	-1
-0.9794848222524632	1.8505038305230752	1.687260075419678	1
0.3688821876631895	-0.6729872786989883	-0.40486113162018345	-1
0.062134737671959525	0.4251323817018078	0.3269865445769843	1
0.7690863449000269	-0.9085587644879222	1.6152510911776592	-1
1.3084872009133426	1.655888533615777	-0.843327638934849	1
-0.1366838460826474	1.3663708678142668	-0.3969879464946405	1
-0.18595423515816822	-0.5825922912475489	0.5381578685162023	-1
-0.31985388811947324	-0.47751539523023445	0.29021097173614074	-1
0.34741336258599237	-1.978010608107021	0.4537773793777703	-1
1.7651115614026573	1.0141046822200979	0.4005831651821222	1
0.13348015392912177	1.0373225040604892	-0.4781995954335903	1
-1.5790703714400973	0.906120094216931	-0.8823205249975722	1
-0.07968482774901635	0.7139873282911355	0.0008688738252266013	1
0.34518357644637865	-0.9478370785990933	-0.0904073298165159	-1
0.8534409293925547	2.0273053978493696	0.5647874402011328	1
0.694381999273929	-0.43367466310396857	-0.014934054716027436	-1
0.3932957654648255	0.8403632235978789	-0.12496329442203064	1
-0.49901504543213826	-0.9455850204500584	-1.82498405918994	-1
-0.5455041211827137	-0.9049861815641511	-0.8572940908969866	-1
1.1426997529577207	0.96022507386581	-0.03944408612789665	1
0.055204449693353766	-2.081407031535872	-1.4497597788982715	-1
0.04869479219004259	1.4556443356704165	0.7003250852674912	1
0.8433761797453874	1.2751900670156848	-0.9006038453955025	1
0.08024226186578123	1.0111642621884274	-0.952959834383819	1
0.8905613358390913	0.8332231339733325	0.17421620200373647	1
0.7833417813589041	-1.120283051202962	0.7522656717355798	-1
0.05160159767255047	0.9040378757093395	1.4751966181325673	1
1.9322301030938571	-2.130038524864661	2.59362182505588	-1
-1.5934932377908837	2.5658547688450613	-1.7276331355244656	1
0.8739043626218478	-1.4257029634632963	1.3768958007369225	-1
0.6558820730453248	-2.632784392711823	0.5149946904366494	-1
-1.1681766048441093	1.100134530306442	0.34544030283471105	1
0.18321103767605712	1.6027748741018244	1.3011381442790584	1
-0.012078248499071404	0.812853380675732	-0.6609933213329169	1
-0.23448560230752807	-1.1899055354083647	0.02949809062856317	-1
0.6116753356500064	-2.4106998716692107	1.2756480559773369	-1
0.7249146186303254	-0.06820292981104523	-0.1489377655290304	-1
-0.3412454878644016	-1.3048549175426767	0.8275804812281153	-1
1.2278046728041647	-1.461681609421259	0.5369898516511825	-1
0.9017119094508269	-1.4410654131992795	-0.1734630480759951	-1
0.4663603018886089	-0.74964714687964	0.6762992778699162	-1
-1.2028389479311254	-1.1153591498574844	2.9266876407144644	-1
-0.2660293105247141	0.49701316785905486	0.8468186539822573	1
0.6332514356663197	-0.7458993813443022	-0.25424272873454584	-1
-0.014691689300303611	0.6154588252377311	-0.08843786315378496	1
-0.25649840031535454	-0.8089113225015861	0.6705753615281367	-1
-0.29813813597773087	-1.0162082295468113	-0.3542504306714276	-1
-1.1632206886700276	-1.458359867460298	-0.36683411732051485	-1
0.189308317097915	0.858217280613868	0.8630298260725883	1
-0.015169529605666145	-0.7205803099996633	0.4736823813338179	-1
1.2973871271147086	2.2209361484331716	-1.8426949848900505	1
-0.13791584580547855	1.5460301200449225	0.15794733474427108	1
0.5852542516148473	0.17943501645350385	0.4243173000502628	1
-0.27149351651609893	1.3883676272853487	-0.8720874654156372	1
0.951376297453114	-1.2628379321590648	0.424800479951123	-1
-1.1669276785479714	-0.6148197977338105	0.45250230095491195	-1
-2.1025045573981496	1.8934362176666648	-1.9498624749603795	1
0.07714415918292475	-1.2824935822810895	1.427324448388963	-1
-0.2618621678680879	-1.2885054226293262	-0.6626509244253432	-1
-0.07290537232894481	0.8095064704156104	0.5724901541313638	1
-0.6340103205663867	-1.6989660102302477	0.5930804012428811	-1
0.1909992943289919	0.7533365279965343	-0.018868040307306704	1
0.02902536603984582	1.4460111963330609	-0.25291946119117154	1
0.0825836495969742	1.0083283080059897	0.7731907789216432	1
0.10238638588178978	0.6138047155369202	0.12997556704055555	1
0.3132363917393438	1.2886332529353288	-0.2245839381122916	1
-0.4133431830428705	-1.0074339986908485	1.3987010176053625	-1
-0.2949454230628836	0.15718592467451828	0.4072756621343795	1
-0.3856757183020976	2.0917603537687466	0.791215326997398	1
-0.3101935227324706	-1.2441502494059045	0.31628992781115545	-1
-1.5715573271068441	1.562975332647563	-1.2749940130401605	1
0.45647458874586144	1.762144358830102	0.04676662992355496	1
-0.38454494527951005	-1.379833681980156	-0.40854495370082067	-1
-0.5665437819875836	-0.9161979791169255	-0.25196958337494113	-1
-0.2952351986534737	-0.5422707481833395	0.7361749125687269	-1
0.9747149623391311	0.9837211080836794	-0.5160664249033573	1
0.009021243883653156	1.3099102637151772	0.05477380551641216	1
-0.6895674093010068	-2.267100874481627	1.3917375583409433	-1
0.1445932051354888	0.8298845298015608	0.06986545937106423	1
-1.514203669129966	1.0402430205996893	0.929471143676676	1
0.09224496187861626	-0.5182581850908797	-0.9921224117794006	-1
-0.35206737666220556	-0.4428184392579467	-0.46581719642867536	-1
-0.27237948818190405	0.8378605206606986	0.3414558874227057	1
0.029835299491553422	-1.2260002028936103	-0.2231402780097316	-1
