-0.3186200568324013	-0.0063373631594223715	-0.591295391171802	-1
0.9389454053361909	-0.2162764387159753	1.1735841292592726	1
0.487979924817876	-0.7530223684700139	1.9606315692296525	1
-0.2846239758449291	0.40947947906660237	-2.0238895165806623	-1
-0.7124474162764459	1.0642569827793287	-3.0722303788770553	-1
-1.375844092391985	0.12020243127689606	-1.558383691033408	-1
-0.7510437803925112	-1.7280621274003916	-1.5606451231521477	-1
0.45978435201749385	-0.9535830329752902	0.9324686681445191	1
-0.06697726498232832	0.730124024549896	-1.0151570122309632	-1
0.7867917483084985	-0.10094311099087286	-1.1974698949646179	-1
0.3440996755504012	-1.1746078802801894	0.42105418790732446	1
0.4139392195568408	-0.9960017977370971	0.5497439450082	1
-0.10320001387894713	-0.5892361851214865	-1.444770629721578	-1
-0.1789219989128749	-0.6349086383011215	-0.8711774013603621	-1
-0.15959830687105803	-1.8287477523620537	-0.7559153941218018	-1
-0.2346007733921837	0.00984794536592486	1.5037758427050791	1
-1.4074932095408568	-0.11166433361384966	-1.8248678825971032	-1
-0.3280680329894504	-0.35683790644346325	1.64306862151732	1
-0.25144582784693725	0.5222539251661014	-1.447787607464161	-1
0.32982982877624833	-1.8231689654086227	-2.2576640960886807	-1
0.32383251996357687	-0.3301235404229179	-1.8288735788045019	-1
0.8497696559138481	0.023952225707283635	1.3574359612807498	1
-0.6323638528024316	-0.4534689315627139	-0.9891147174986982	-1
-1.0463182602880359	0.29718284533678585	-0.5563170700577215	-1
-1.4482364511640393	0.018775783323948983	-0.6170106222733303	-1
-0.840792629658174	1.0256694154669488	-2.0191880241709557	-1
0.9768736701404085	0.6464140647757851	0.641988028801193	1
-0.16998219861447583	-0.4806118546616006	-1.181084590758641	-1
0.6911274325982527	-0.6648221999740898	3.0676918623421683	1
0.3147762790186282	0.697476569043575	1.2771187424910764	1
-0.16082405153102944	-0.2956391180103529	-0.5537449433748631	-1
-0.2539352716101809	-0.8682096638578428	-1.0195394223543026	-1
-0.40360440745414916	-0.11469210614022604	0.4571942040588089	1
0.6248852352078206	-0.192016051215014	-0.40474872728413547	-1
0.321531428643009	-1.0609676955653733	1.6465184059949598	1
-0.01859894244274768	0.30614018428437995	-1.3368368126346755	-1
-0.05428258023999214	0.8848118492758856	-0.9001184311464933	-1
-0.516105472700738	0.20476320009760074	-0.7176829189401422	-1
-0.33673565154328877	0.16385529713509017	0.997193169056263	1
-0.616348394498331	-0.2901983801123789	3.2146401601904993	1
1.187328972590402	-0.6713312716163725	1.1654876943388923	1
-0.6901568804274245	-0.303254115875754	-0.8802726785217612	-1
0.3892890998845398	-0.09355487428156539	-1.6409068259733914	-1
0.6804295237073337	-0.45934869159626707	-2.187305362371949	-1
0.04541397639980001	0.14985546869141553	-1.620921825617596	-1
0.6957966238162876	-0.22425471796142096	0.2512560734025701	1
0.09304990613782539	0.25487889327808555	0.6507594013488944	1
-0.804904257700437	-0.922667469379266	1.495498780374176	1
0.09393123883411392	0.013355012320684501	0.6561352640942276	1
0.3442412796068671	0.18137140869788773	-1.6654400466198827	-1
-0.8513659613041407	0.0033847822293997824	1.5494021687650115	1
0.09220053702083232	0.6407012477297074	0.8028461770343954	1
-0.1640026769081587	-0.9484384790749331	1.914009938090787	1
0.02978739126168849	-0.6996920738842938	0.6950473937458195	1
-0.3886305024743409	1.2769467350169679	0.5038830193707657	1
-0.30391554977859614	0.5698312075615901	1.9628582803829941	1
-0.10629913604817505	-0.9638081497529192	-1.1964353444986662	-1
-0.8321016317003849	-0.808076121775439	0.7507026185675879	1
0.4736385405984642	-0.12953580610352458	1.5484526908564025	1
0.7449941327853902	-0.23588149822074192	-1.4121238204861104	-1
0.21847636813182583	0.24159841634546658	-0.9655221777272459	-1
-0.3606243303459662	-0.5060366268743504	0.29341672457491735	1
2.080780099976438	0.07147986830183459	-2.033351097643631	-1
-1.1241474667298665	0.07974458303554996	-1.2348845320329014	-1
1.5154242375058447	0.5264142850047906	0.6387790143875671	1
1.1688778529907335	-0.12592810718718644	-0.7166992403245176	-1
-0.7539588380703868	-1.1977142558777563	-1.3116903433405152	-1
0.23654339138431274	0.884319038658195	0.2756534971834308	1
-0.2215502400153574	-0.223407794079521	-0.44140595546364547	-1
0.255484007605019	-0.4926953768281137	-1.0932442014277888	-1
0.5032556767896644	0.20820605698880137	0.6276739390703174	1
-0.5968598778735569	-0.37218788915833023	1.631484502214299	1
0.4164949630168162	0.5777761442284466	-2.261365976528544	-1
-0.04446038518601962	-1.0484805152846857	-2.4339277480659676	-1
-1.1535888995026369	0.33930631372465947	-1.0106197158198948	-1
-1.4933945923466665	0.3775696451330063	1.272053809110574	1
-0.8189190682985612	0.07022708661495783	1.7975173177579127	1
0.24678364032891703	0.35798634399950047	2.587542110091304	1
-0.9406202371034253	2.3449331213553934	-1.2212325905112817	-1
1.182698223445506	1.2106715563841135	-1.6398300688623761	-1
-0.3976030633481844	-0.27428772422933956	1.9260731773114088	1
0.312279395385921	-0.23220708926657957	2.9880767856544486	1
-1.1455439317323792	-1.5024907611675902	-1.6998838445925641	-1
1.1064044610171369	-2.403282044823954	2.2938773149527556	1
-0.1324170752806456	-0.4124627532879975	1.7568242989784066	1
0.3882081443064971	-0.5172600053690737	1.0039069268638563	1
-0.2475892779856243	0.5522298340372822	1.5310573570715205	1
-1.0671078136025778	-0.023028469379712403	0.9037242151502578	1
-0.19958358700603557	-0.41824278827865247	-1.0727860973394077	-1
-0.06478432327093485	-0.11469203695628434	2.1481114929511884	1
0.7128404922308792	-0.1950679719490063	2.3509184103544314	1
-0.5905825447824071	-0.22068371728184003	-1.6884592718322928	-1
-0.04224223858011581	0.4023082304884789	-0.828877432575586	-1
-1.3528098819245487	0.36928743773632494	-2.194517063790241	-1
1.0505783388211434	0.013360191286989329	1.0239735208624603	1
0.2960389042333521	0.28666369147139154	0.5277097594325133	1
-0.9013638566415666	0.24446781122463374	1.0836134973542877	1
-0.3220900963246426	-0.3218108286582689	0.2258664372398167	1
0.06170597044142332	-1.108739001876227	1.659183528107492	1
-0.011943773042095398	-0.20101632388093787	-0.36880033341387963	-1
-0.03855193785979355	0.016873475036782583	-0.1623366851235958	-1
-0.023810170036112327	1.1748127837269644	-3.89369347441317	-1
0.870318307498553	0.44743317792286674	1.8698784470380583	1
0.4111254240037299	0.22982863432695555	0.2674402323930742	1
0.6669065703655499	0.5891390644464017	-0.5956977820608161	-1
-0.7034012919263095	0.9331357926748745	1.8299562418266913	1
-0.11029500186885006	-0.17554794840223686	-0.6139287001056533	-1
-0.3421427911284458	0.5817223172296668	1.473032281162116	1
-0.15687396705692663	0.6873544513031411	0.48104473421211363	1
0.29769276917008786	0.09970973442205623	0.4796982146377048	1
-0.5707485142378834	-1.425536963857333	1.5890027012102252	1
-0.32062093087102583	-0.20387233607935035	-0.6473219683845617	-1
1.1787227136855343	-0.8647376730417965	1.5728036304571822	1
0.0424756291971033	0.028720555506346297	-0.7555412435490432	-1
1.9976129368127302	-0.3490239992934084	2.091899998131302	1
-0.08850725765533575	-0.042497509672059244	0.5303719133244873	1
0.7952534854525541	-0.09848351507169507	-0.7648696153116545	-1
-0.9060396338520846	0.6227792680833578	-1.760471378589765	-1
0.3673286829720137	-0.6044844826707387	1.5098741672407692	1
0.5330205746094125	0.8573238690148806	-1.6291665312784476	-1
-0.11794420957203144	0.14654472832501042	0.8116560659277409	1
1.7579110805275189	0.8948098050108206	-1.388171198361776	-1
-0.337252256059268	-0.9139068815504547	1.0549230244626335	1
0.05143160627360947	-0.38828743089402884	-1.1795723881606666	-1
-0.5689788089864376	1.7137837223638424	0.3292920197493059	1
1.6159158151845014	0.2075368417823361	1.8532863547295197	1
0.4785471739000689	-1.7624970755794571	-2.1742778441522104	-1
-0.4244596407565238	2.5095494601617596	1.1644561804212752	1
-0.14107084445637572	1.2374654061223032	1.768144396086787	1
-1.0352424436080336	1.6863525759514855	-1.6894364928852776	-1
0.9276350116110883	0.023680722365671515	1.9105957450890552	1
0.039469000995178666	0.8572891534561358	-1.7443806930771464	-1
-0.48836226766213875	0.09495563512316675	0.5840564851322801	1
-0.12752837100476624	-1.1291602702289807	-2.198735713494335	-1
0.21534870482182902	-1.5857756310907973	1.826084885484971	1
-0.2114737729709464	0.395498182650849	1.084605545053527	1
0.01897257292594987	-0.3551620913761726	0.718271478962399	1
0.10053415962834575	0.020156852077025725	1.1740413940700516	1
-0.2279245336533624	-0.20899533362073697	-1.0216033420091943	-1
-0.2708439970595701	0.537059353982628	-1.2510660526956834	-1
0.06397213061356975	0.3223731852698808	-0.6967729365269333	-1
-0.5277297779973353	-0.1080171127053205	1.1637994909107872	1
1.1742103319418995	-0.30415956832346347	-2.430709881470059	-1
0.2965896067492045	0.3984356983564452	1.3858340769092536	1
0.40154905998141227	-1.324033591511395	-1.6424342910254446	-1
-0.06908327346672313	0.1174844580020208	0.6982806089422914	1
-0.8409428141639121	0.03567255093968042	1.5576931431634518	1
-1.2750652041626052	-0.5480424589653127	1.0095546239635358	1
2.3643845727183375	-1.2659464550449409	-1.3577110319159813	-1
0.05393815611981516	-1.1919205867091214	1.9352446109670622	1
-0.9215220752702251	-0.5993793127718501	-1.0626007436076201	-1
0.5780831062103597	-2.207416435579321	0.35823745802201146	1
0.29420743003706973	-1.6085018154190065	-0.4478379536141384	-1
-0.5021787150879594	1.0025231805251194	-0.9115414333946088	-1
-0.393561687176071	0.2590736656206568	-0.3370936305801273	-1
-0.19730317636967826	0.5666441418181258	-1.210789771457343	-1
0.3509764489363537	-0.8769496851876932	0.6313529428786127	1
-1.2131136220934242	-1.268734457816334	1.3125887458326062	1
1.801472454508612	2.4445817688852576	-1.623669393442031	-1
-0.22565900764589397	-0.7055051781496996	-1.0475560832232984	-1
-0.32781881855847916	-0.48379022273812766	0.920402161092704	1
-0.14963182868921848	0.1394915303879492	1.074082596389041	1
-0.034877792911101074	-0.16054839152576403	0.9476555720155277	1
0.6945285369078102	-0.5543724407497197	-1.6067062849561409	-1
-0.34681768944835345	2.216236005642733	-1.3768068906508995	-1
-0.14539915875319978	-0.985764024296204	-2.719724742832789	-1
0.41560777806740734	-0.11967985894212814	0.5033228769447127	1
-0.10473685275639177	-0.6468722106461717	0.7759891947219202	1
1.258179199551295	0.6332117490192463	-0.8635553214601399	-1
-0.01111890564130088	0.05611590220539893	-0.6857251254727146	-1
1.0086921445363692	0.33041194792259326	2.428206131876057	1
0.9746315871372382	1.2278451774415435	-0.9026538021925159	-1
1.430213471803358	2.0659263411953748	-1.2190187498897223	-1
0.2516411817396059	0.5895143374751007	1.406705919744518	1
0.5858535051751059	0.4801031289803207	0.43216223629374123	1
-0.048674070130955455	1.0310805980930255	1.4960272449264536	1
-0.949137855131058	0.16113238920723724	0.9388576704329866	1
0.07420027848658031	-0.9705645389694555	0.3842246597808525	1
0.0382289267422487	0.9121125720855585	-0.9835682443425946	-1
0.863748192279954	-0.12428062385639262	-1.5627052874213292	-1
0.7693004279926315	0.6767231739262578	0.8153908580481969	1
-0.19592599925956525	-0.7711920374148353	1.7399873633953864	1
-2.038815356268512	0.8259175538334194	1.318857597684039	1
0.2050130231845551	-2.418042821550821	-2.6741628077183917	-1
0.6847397548161875	0.5697664756379611	2.024319629607178	1
-0.3612001064679633	-0.24759607733603575	2.8359135349112408	1
0.7291461437967497	-0.4982841816554178	-1.243577652126639	-1
-0.025419937238157095	0.7616267467666034	1.260080561392567	1
0.5089325734497728	0.3012217732701387	0.6737371891872752	1
-0.5522492477970664	-1.414538232813836	-1.5838654065072695	-1
0.3817209836598517	0.2529722297420443	-1.2255511357519526	-1
0.7122880372044733	0.16658792822541607	-1.7045709179831543	-1
-0.3437267135222773	0.7879779745249832	0.42425578895750615	1
1.1195942664736367	-0.033287579668974415	-1.4311638715424921	-1
-0.13463957985198446	0.7494905655379173	0.6075310475647493	1
0.3221956402324329	-0.1160748524335329	-0.16072105435831646	-1
0.9091413687140154	-0.690245805399589	0.5031647215630396	1
0.583139885610188	-0.05211538889026325	0.36788424449612955	1
0.09540286771724499	0.5470355015648687	-0.7130490174832653	-1
0.5795431816142211	-0.10375074846539334	1.0529141152417554	1
-0.5763920879250168	-0.6469145436331375	-2.385701538817552	-1
-0.07957324569641916	-0.09874393159454348	0.8603968333944506	1
0.3611818476380617	-0.41061567517079756	-1.2614070798382113	-1
0.4503770955725752	-0.09385036799298169	-0.744030775451893	-1
-1.0209951664052106	-0.386197604656273	1.3099272862161746	1
0.3069002995067597	-0.6368003912492869	-0.69221934267088	-1
0.8209773990816577	-0.6070252770980165	-0.6191597735684915	-1
0.6484045178231018	0.5251373375529751	-1.6639613935959323	-1
0.7667747826886606	0.2782074110578856	-0.7111188391290081	-1
0.22467301628462905	0.039801052940806526	1.440540866620272	1
0.18581877835678107	0.05105148071080774	-1.0741379410140022	-1
0.09033353148599307	0.7444364046675613	-1.4153110177250081	-1
-0.12234732126982809	0.02518090828230087	-1.0847115198112975	-1
-0.35871935320847315	-0.9382213595467896	2.9375230146024007	1
-0.6030994896045803	0.08090645384888184	-1.517873722441902	-1
0.20155209522256645	1.0082991964555814	0.8674196368570528	1
-0.9837956279675059	0.22842290435126195	0.6908835402940157	1
-0.6248306131564316	0.15304742032135973	-0.25563539387169004	-1
-0.36758533593251463	0.86710220587137	-0.8485207698494245	-1
-0.44812154388912734	-3.179048923528392	-1.435070478663632	-1
-0.590338914823838	0.6169062012636994	-0.18308037556505197	-1
0.38961016779678836	0.33856798990020887	0.7864312934679245	1
-0.7820110895972376	0.6056191159803408	0.5747175530536861	1
0.2694994759429399	-0.6472108992524361	-1.0240188274380522	-1
0.28108948366459785	0.30759711487431385	0.6523307259480184	1
0.3255809026882916	1.1712600354960379	-1.4068103917010328	-1
-0.7455054465746953	0.30899283234384345	0.607624319037726	1
1.799311694632656	0.29957951571104346	0.36735530880524314	1
-0.48603123382420527	0.2950196164612719	1.0429767274261028	1
0.8927901378600027	0.8751845675873764	-0.7374400697584471	-1
2.459648542562663	-0.6517258204831045	1.4680408117571127	1
-0.15020238826163224	-0.5348588649280396	1.7586758627306391	1
0.26511690461705806	0.012092596967200504	-1.0517162890796603	-1
-0.9094339619555433	-0.39095414652575944	-3.0329230916333483	-1
0.597447011996582	-0.9875190489977859	-1.4908159144512247	-1
0.48848865478324033	0.7785166554341161	-1.6793693875506162	-1
0.826203447560031	-0.3530393375605203	-2.625998664354903	-1
1.2936249323851194	-0.45925225623973376	1.1477662092936194	1
0.8541223915210511	0.6809030519933429	0.8799292818283752	1
0.6907024402993636	-0.1847984306289051	1.342126046165966	1
0.85845036939262	0.14336246755231208	0.5584607008031893	1
-0.06822296251208897	0.2706231789225303	-0.7780277045766348	-1
-1.2251543418287243	-0.09104854160841692	1.7077268280361688	1
-0.385684594433956	0.3584182105379372	0.5510843457029966	1
0.225425767764182	0.14808931863972585	0.6282262836796675	1
0.47775975651409475	0.3389120561668981	-1.380094165320383	-1
0.45882130140491567	0.19782051160080796	-0.712716915983625	-1
0.5746199119068683	0.39788020305961713	0.5343605696417839	1
0.4961423935995609	-1.3297693995092401	-1.6460258289048952	-1
-0.017567542971369594	-0.0025875964311337105	1.5585422474207853	1
-0.4357463956669193	0.4035861464831861	-0.6334516860837334	-1
0.6013156757693734	1.1354075191226751	0.9046972608627195	1
1.1589226970332922	0.8949263255103568	-1.3025293553789918	-1
0.9951559036662059	0.3975664876781704	-1.0581410845191888	-1
-1.1663626483483314	0.8422604538950398	-0.5259499379448531	-1
-0.16385794671722378	-0.3426017557927894	1.0488756462430044	1
-1.1266955471778812	0.33707575810381446	-2.412896386632589	-1
0.22258286681995898	0.09576608299095446	-0.6170470779348299	-1
0.18766893136916488	0.8869386977452811	-1.3836076042560173	-1
0.5951769995567516	2.1145543839662775	3.04782310106487	1
0.772687487318366	0.13960107384949683	-1.571738944009324	-1
0.060298683992407884	-0.5443963646075138	-0.32615987867013246	-1
0.11875464231316192	0.12862123879043885	-1.1075714256604186	-1
-0.18182115358664108	-0.6566735500594751	-1.2620822994247112	-1
-0.170303043356255	-0.03008744964771389	-0.9924469716135831	-1
0.3477775259048431	-1.192961135098436	0.6650615643506536	1
-1.4425564028422067	1.1402929058277609	1.686627340318612	1
0.01157126922355556	-1.051821039417053	1.848195359334003	1
-1.267248133663426	0.033444780425404184	0.9050738289350911	1
-0.5262589442123008	-0.24768000976905136	0.7779719105416456	1
0.8511432425365447	-0.11164732325685875	-1.5361740908742956	-1
-0.8397834505580773	-0.6918994116606856	0.9729796598973863	1
-0.03132764752424354	1.4288808004111344	0.6583219949524393	1
-0.886825263134846	-0.15202518775385196	-2.2879966192468943	-1
0.6156174137659787	1.219104753892041	0.8672148595101659	1
0.30062245213587624	0.5791206753379523	0.8588033825756558	1
-0.2669528094840662	0.9713209890336825	1.1132582345084634	1
0.16589537235612906	0.36632084926526637	-0.5687044168704409	-1
0.5208731195310371	-0.12717251059505583	-0.3595092743581386	-1
0.09747439860172122	-1.612507619740659	-1.7573451885564544	-1
-0.5535850462131217	-0.6701371409668737	1.328099812635013	1
0.5336277699690994	0.7870907546769905	-0.44755200124118344	-1
0.1949571759384702	0.26591350205879766	-0.4274240444980398	-1
-0.2557906985870459	-0.18364761730927864	1.1441947102923913	1
0.6462489245261909	0.0011121345370717598	-0.9541077281638729	-1
0.35267660598408257	1.9602696648413211	-2.3865847701516807	-1
-1.047392408209938	1.968987601998144	0.849545215755979	1
-0.6208134089177803	-0.21673972339774883	-0.85868222294646	-1
0.49972479957785737	0.4083228796635137	0.814198314973676	1
-1.2626128302588049	-0.2802657572854157	1.0425275688024656	1
-0.3552916003387445	-0.2828241301988298	0.6030436174241689	1
-0.5101972678102821	-0.47017450423212215	2.6452410936655966	1
-0.9096471299847773	0.8489042324447548	-0.44671595439868284	-1
0.8711152449097801	1.4103112714026997	-1.6950166481878708	-1
-0.8477736284960031	0.4647782347590306	-0.7868308033680208	-1
-0.6711734523593145	-0.08435065083302576	-0.69001995236072	-1
-0.030431329162827248	-0.36866714458907973	-1.0337620730473038	-1
0.8076646329402204	-0.4586929508888693	-2.5450125450403664	-1
1.4156354687499229	-1.2039027075736501	0.878624922778057	1
1.1208565282891572	-0.08644640866134608	0.7300357274467366	1
-0.06587155561497365	-0.2383686308551472	-1.5337480776006198	-1
-0.4334155939228475	0.49398021546152765	2.2890146555289617	1
-0.9131565863019616	1.0708825761079082	0.9615827700827837	1
-0.5378020670987491	-1.0635118656970093	-1.182524156037005	-1
-0.7866458028220175	-0.41932186739192867	-1.219965624076043	-1
0.9209585393229525	-0.27386079717960565	1.0964933067612113	1
1.025824411908928	0.3863760862757756	0.5261774003961569	1
0.03398210496612955	-0.610843248299066	0.9587691225509524	1
0.3360065917481544	0.4534190023204404	-2.106140725608633	-1
0.36052777804426683	0.7706652930112626	1.1964321082811753	1
0.587117782253695	-0.19653335143344203	-0.9715775237544588	-1
-1.0290862603221316	1.4257299532645051	-2.57877721954192	-1
0.1421701693534562	0.5216330772764617	-0.30229991697829217	-1
-1.9063118122683929	1.2314619440975734	1.407167676688934	1
-0.1707588862150493	0.17845829962844834	0.5225553304134897	1
0.3292787117185195	0.822577918995034	3.292840627471584	1
-0.37475063034305084	-0.8006872875021995	-1.7977904488904015	-1
0.9779310071212338	-1.043799595384614	-1.6588946099871684	-1
0.49442149933010715	-1.3501665069073185	1.6428754969100814	1
-1.088448094521236	-1.2385212645024324	-1.3626734250772845	-1
0.593613372783709	0.39022034052554533	-1.7834091256848217	-1
-0.4661797625263567	0.6601696316947363	2.0491900120221485	1
0.24584129822221473	-0.17855416430362625	-1.2330040919432144	-1
0.05938174777829675	-0.11746531795453492	-0.24023786468259184	-1
-0.35397665779426807	0.5633415801528592	-0.9611232524162299	-1
-0.37900313338563507	-0.17680118971874528	0.4760170116691249	1
0.2799937033878038	-0.7753402131984144	-0.9917364695101796	-1
0.37234190579552784	0.29547225772218927	0.37291458478218276	1
-2.0727504454160526	-0.9880592768754882	-1.7806055455701293	-1
-0.5305215408964638	-0.7997075891961232	1.8793088898393848	1
0.46384574601262046	0.1442611355661002	1.0650355366005226	1
0.12804837648044703	-0.060155386666424816	0.8976897785383225	1
0.9926107142790257	1.4956446784871835	1.2155248459374457	1
-0.34069360498615786	0.1356080628123848	-0.8454159898663915	-1
0.7723269543362729	-0.934067600313279	-1.3540684441840316	-1
0.5100753242760565	0.1188628465088929	0.5176987333535626	1
0.5358214348347661	-0.6988136350636858	-1.0855617233021262	-1
-0.8205457352867405	0.4841842811202062	1.1175934151576647	1
0.28739929161632904	-1.2087672685417488	2.912414136176693	1
1.784434485665384	0.15128988744843147	-1.3211851135917438	-1
0.22746365243108616	-0.9498796213023926	0.6157564563918975	1
-0.6213239416315322	0.159980606059884	-1.294321594538184	-1
-0.730652469734004	-0.12529577320251867	-0.7525652254516162	-1
-0.9129736624709983	0.47300211706436146	-1.365432455249692	-1
-0.5835786156455867	-0.6194708338688704	-0.8047971008808951	-1
-0.004047638693606701	0.16734457547859694	0.9641048206223141	1
-0.07777527664092547	-0.799239923640475	3.896867200891511	1
0.248574802474028	-0.023213383664235174	1.0123981300400873	1
-0.20798430076559396	-1.0367750852725248	0.9186889356718686	1
-0.8404982714683198	-1.5495169335247605	0.5905849493349948	1
-0.7859923295534823	-0.04927440548731238	-1.412159302823838	-1
0.3830789063515297	-0.22987893513197	-0.94465369384626	-1
-0.14169689086301596	0.43744040477190216	0.5343306413240102	1
0.4125709666094858	-1.25856642142348	3.1430238695196406	1
-0.6551778263619003	0.38089676551643936	1.197448584234138	1
-0.5054724431311924	-0.22529235900848987	1.3769072168918144	1
0.4638317813393863	1.0377808805770803	2.386347675832	1
1.0058228824281124	-0.4354025280019525	-0.7982768806757845	-1
1.1301893120688546	0.008984693533875899	0.439728852314687	1
0.48118433596898963	-0.3587878086878305	1.7230210136368842	1
0.16558819914970682	0.0716721190333153	0.9312363722868536	1
0.5271830489667177	0.28626607105190477	-0.5570728747709962	-1
1.7880307707028227	0.954759629973742	1.148508662550031	1
0.15499197203045434	-0.382507412635412	1.252335965613562	1
0.3330076754893555	-0.5639073333003292	1.6441214249087077	1
0.40241633206738114	0.7191491138514846	-0.9143199001477169	-1
-0.19234249268038228	0.5518724468007992	1.4523839032059958	1
0.06592014574379498	-0.7011442995267032	0.8769308712039489	1
-0.1585235500707667	0.01050856182450964	-0.848807327657311	-1
0.15876050586753837	0.2627505565884992	-0.7926554180602419	-1
-0.551294495470456	-0.1583540242054794	-0.952162601497387	-1
-0.8295441785737441	-0.28555996934914696	-1.0851361779749378	-1
1.363504531329136	0.9673381809225894	2.5215093348015873	1
0.4792033469451847	0.09856243407677293	2.164370036468282	1
-0.3917941761680199	-0.33095951759605563	-1.5822715317146248	-1
0.7672445942237301	-0.10609133503426038	0.5208743533728531	1
0.04818723579360096	0.23611862025639907	-0.8734112002848162	-1
-0.5720491969987014	0.07938929030145872	-1.2969712454968776	-1
0.220881092335127	-0.09438361059951529	2.3406887956536413	1
-0.0658011378557398	-1.120460010806756	-1.1292500162586596	-1
-1.0394073232159693	-0.9376098642717152	1.4874433376582745	1
0.040909914259566665	-0.03750874270881538	-0.23324844092301222	-1
-0.2980888779046055	-0.8561019472743766	-0.39292414562488986	-1
1.365936718995128	0.31677494692087615	1.2529949202476987	1
1.6641577935350977	0.36357661422645493	0.579565021352388	1
0.7670469696988178	-1.4265443951199972	-1.9328074082828208	-1
0.13615841832635422	-1.012288996989787	1.1321514658400114	1
0.6184538680112166	0.1271843331947768	0.2482195641305312	1
1.1925234256218455	-0.5013227291208202	-1.566391195574711	-1
-0.855162925813711	-0.8633828837205195	-1.6269501978775855	-1
-0.9514857915606287	-0.12812342848653227	0.8968200094727374	1
-0.40611610848422497	-0.8183792573241244	-0.8879921476847623	-1
-1.224494356544272	2.0777098773046037	-1.2721107971959982	-1
0.48072019196102933	0.11886092476421663	0.7536310508534859	1
0.3311654310623109	0.8706359429629852	0.7795060157140432	1
0.25148354827039787	0.24731063611983475	-1.714996447514936	-1
1.5124438368274309	-0.21346952705213335	1.0059508542773687	1
0.7550954199735364	0.1646528389822719	-1.6793259923142083	-1
0.276873798264623	0.040128171178229234	1.334771320475409	1
0.13867835406410492	-0.4622844088876905	0.8059449132480714	1
-0.35817878872930875	0.3400132394749978	0.6589983953736724	1
0.6403808514626442	-0.5751312839203183	-1.0952929641304014	-1
-0.34039744564105445	-0.1956819956691886	-0.8888320309576909	-1
0.4844184044652949	0.7095791507030912	0.6893652166542387	1
-1.0207391621817374	0.3776487146436785	-3.2468169161728904	-1
0.6128888118259779	-0.47811777432393743	0.9808259547224175	1
-0.5252837886554622	-1.0151928748573806	0.9727196662387922	1
-1.006411922269823	0.7914876399127626	-1.002103395261369	-1
0.3484926629679923	-0.4952583306936509	1.1741934780196848	1
-1.871196904606519	0.894222768045682	0.6396814381438871	1
-0.6452556140969352	-0.44873513632369455	0.4228007145209956	1
-1.471174077435624	0.35403450035254647	-1.0883368731145997	-1
-0.19471336999074657	0.14848172286927583	0.3729347287562941	1
0.23951287715685993	0.8006849984964255	1.8389767589039343	1
0.46520728419978874	0.9993125171040346	0.7190368609105702	1
0.17343676902930538	0.40026248606275916	-1.2359413096581942	-1
-0.10252307171930206	-0.897209557690358	-1.2337587855431726	-1
-0.830949900476526	-0.1744746518397069	-1.5285373443740842	-1
0.2679322946974232	-0.8130086187404398	0.7135207969144366	1
-0.07478637286888447	1.233717813600813	-3.6749907370008765	-1
0.5251413337469217	-0.6361644920702627	-1.1519114219830504	-1
0.9875754110124185	1.4127451219742782	-1.1866398655584454	-1
0.38971832304165754	0.49587356906277036	0.5290285496047538	1
-0.4339473444726758	0.17059547139770628	1.3603725986999646	1
0.6911573462208054	-1.024254497652857	-1.9560189090071725	-1
0.677654297700161	0.44245947788782797	2.529882746917477	1
-0.018831808321856543	-0.21192870842444747	-0.20495198466925496	-1
0.8614626101711923	-0.7667649319390599	0.27269754964690923	1
0.8493836884621668	-0.4734765910116454	0.7991402412205928	1
0.32173731118755766	0.15784309032972896	-1.3233380074185281	-1
0.3497730382293929	-0.9464514968891399	2.78582656349338	1
0.22631474109019228	0.4104975357326729	-1.1621161460851006	-1
0.5520205576143072	-0.6559730602456334	-1.5185983085802184	-1
-0.3003544160450637	-1.1155096461602185	1.3271210981009454	1
1.2568281173886624	1.0601148918120202	0.7509507760692535	1
0.28048013627790624	-0.5914459955653084	-1.0726351306746706	-1
1.5168805362752624	1.2194224044713575	-1.4895027396438443	-1
-1.5365538826557001	-2.165974554618793	1.011897271220198	1
-0.009631663600505895	-0.24929918719818747	-0.6932331610154062	-1
0.07837085744793619	-0.48284908192395426	-0.5649587829403784	-1
0.6580259175385155	0.7117731742036076	-0.9283842851732425	-1
0.005987831224654396	-1.52492811376621	-1.633920173946395	-1
-0.7443737418262519	-0.45919141733483465	-0.7827283891850083	-1
-0.9648851997977512	-0.5037545739674818	0.6168848236807258	1
-0.8040384061128996	0.9920326434140346	-1.2646399743930872	-1
0.526458370568496	0.0783786919677986	-1.0607071986663061	-1
0.4870323105221043	-0.9161207412960057	0.8792993079828388	1
-0.47833746520972953	0.014074629316063802	-1.7502006602967735	-1
-1.0240862433462516	2.039483344069591	-0.9607646799139364	-1
0.2843708261532928	-0.22199868839973702	1.0505655892629442	1
0.1784164742206109	-0.524025990111069	-0.45589262549134424	-1
-0.4490451740351878	-0.19989614518414114	-1.0275066303472387	-1
-1.0409304420061147	-0.32589344859041125	1.1032313332973853	1
-1.1465231566349707	-0.2357569099057241	-0.39221126796831196	-1
0.21799053227536538	-0.17339038298589854	-1.2638754425047125	-1
-0.27348859732266284	-0.26938823093411307	0.5784318291980326	1
1.6920039157294018	-0.36659116263872316	2.269276708340122	1
-0.37467085978029047	0.3925119423996535	-1.4861679710393538	-1
-0.3482457317976076	0.1739336659235602	1.69409532464165	1
-0.42021507431327865	-0.04812889697380039	-0.3452979797162579	-1
-0.37676516568734214	0.01884018557054218	1.2950636708644099	1
-0.23973772470834842	1.3760237292379938	-0.964010016669997	-1
-0.883486942402876	-0.5146454971690427	1.075207042025857	1
0.6600613446787014	0.35763857159563833	-1.395391504599325	-1
0.711126986222173	-0.06544125911097676	-2.4087329514701823	-1
-0.8877756530816092	-0.43785612693675136	-0.7977174714344581	-1
-0.3831001944587978	-0.45118188700915624	0.39636834410240174	1
-0.26069257120470246	-0.22974249800571714	1.3221538130185748	1
-0.7608894308218269	-1.692631436488711	2.4836119098340044	1
-0.07181281043556687	-1.2280159639383867	-0.40886563854745106	-1
-0.8028034126767901	0.4670266277692603	-0.4336132335351446	-1
0.16166554898562904	-0.0817539593985114	1.5142994717440905	1
0.4482545713003164	1.4389814341704856	1.3074953422876734	1
-0.34990285015496664	-1.747926045029284	1.7317150193070514	1
-1.4076147243780215	-0.1365887081487254	-1.9273444447345156	-1
0.017823155628872198	0.3069543806003702	0.9451237559197729	1
0.33745594173146826	0.40582284995172346	0.7989785372114919	1
-0.3142713073515128	0.43448749792906394	1.0964054713459679	1
-0.1894956314052183	0.20826392458766146	-1.4530034928896074	-1
-1.358657084703798	-0.046414213869816985	-1.4729545027595847	-1
1.0894070901030863	-1.528058131641147	-1.835517476964175	-1
-0.18881452096241846	0.7198830700614975	-1.174303219618282	-1
-0.18549241275787126	-0.10941460456339339	0.7690465389067573	1
0.5848466314436922	0.5600295256519267	-1.8238036477786754	-1
-0.057520552132088634	-0.35335038556651077	-0.7991709390306809	-1
0.13720258654295225	-0.0662883775076232	-1.185895627060079	-1
-0.18367881197815963	-0.2134327872722749	-0.37676256981438844	-1
0.8557092133714339	0.25305439800794904	-0.5086111781189455	-1
1.1473260294375036	0.6541747944580101	1.6545771233592106	1
-1.5266759129064589	0.8008440777146895	0.8498497331271075	1
-0.6216707079759342	-0.6711467609115849	-2.4161067123319047	-1
-0.5463432764030678	1.4296209114723597	1.3566325424992896	1
-0.8002825964987608	0.6053410293558175	0.6504681472907923	1
0.6907220798008231	-1.2072376494396053	-1.1191207331770587	-1
-0.1973644158433481	0.5944041114535038	4.163046072085387	1
0.15395204997776651	0.31806986927097514	-0.86604258143465	-1
0.4787996576120598	-0.422287615159728	0.7250302179596961	1
0.15324328452735395	0.04964765106245517	0.4210821186214122	1
0.07690880666676603	-1.1119928731944497	-0.6044938554048549	-1
0.30456408912913135	0.24055321046139894	-0.3169540621004431	-1
1.7686108454989826	0.5828527837474614	3.2891561097104227	1
2.265085621163178	0.31287181997877783	-1.762164212067613	-1
-0.6081732805807231	0.9029976056897575	0.6266209750271127	1
-1.1796783893466372	0.22528700464339096	-0.8214333114760143	-1
0.6104945547450128	0.3121033046461303	-0.54775126552132	-1
-1.7659532135497074	-0.2146015914391704	-1.0685697082545422	-1
0.5347340317818978	0.0699512045908445	-1.039534746891461	-1
-1.1341103030789257	-0.9368528490659676	1.1150659452962004	1
0.04051774964650659	-0.5948814043809243	1.1247011100604785	1
1.7619481321936017	-1.586745862676022	-0.5122941461890327	-1
0.16732281693987375	-0.12570263495629974	0.7423719589310172	1
-0.19074926662163474	-0.6072225035615326	1.3586422882610067	1
0.7829929101126433	-0.5636168793098971	-0.9627938437842861	-1
0.5714729301027953	-0.6699547262444732	-0.7035069111905587	-1
0.014854138529358326	0.7947477615131812	0.5620018948378261	1
0.39779992965290134	0.24147289213185022	0.46477079467302795	1
0.017405806865963762	-0.7407980862531521	-0.9953929834926393	-1
0.6430232344488958	-0.2543498488458559	-0.2976131238785944	-1
-1.0742064843916486	0.15821814176087384	-1.1129597334072256	-1
-0.022485486015996387	0.7276309712601089	-1.3906368955505712	-1
0.6209630705892455	-0.007822563105727091	-2.19611329506221	-1
0.776187949726635	0.4610989826520081	2.009713759505369	1
0.02149044248578212	0.20393268295705774	-2.5808310052278003	-1
0.08440906054822853	0.10166126273371867	1.3352890138089673	1
-0.20575856884603722	-0.27692544128347546	0.4195173406362194	1
1.135867651540749	-0.9912111942715258	-1.259829057796769	-1
-1.0586260469932063	0.11048404766869516	1.4458850109485692	1
-0.27321261745515824	0.045441773276154784	0.7769933730969859	1
0.5528251241346629	-0.2323472810401011	0.7958842674130104	1
-0.4964813409771226	0.06943543512962291	1.8768339148273916	1
0.3518042303710879	-0.6411433859204595	0.6479573790569368	1
-0.7081535282768117	-0.047058984537838085	0.7353879776170676	1
-0.15413494784839016	0.22753991152698808	0.8905298050016501	1
1.2587522390436225	-2.2894050971913664	-1.1913122273254686	-1
-0.9028612358362658	-1.5554834192645175	-1.156125883735225	-1
-0.3379701616435774	0.4785517404686652	0.9202456042760343	1
-0.5311539619946302	-1.8192829339335201	-0.5096577722713234	-1
0.5458176872301486	-0.02295677845729183	-2.009961460586925	-1
0.2058699082946902	0.5633002705564025	-0.8665304530784055	-1
0.0010939867195244644	0.46921255041219356	-1.9446575882349832	-1
1.2145431585993791	0.2548886728159814	-0.2593921903832358	-1
-0.7322271700433098	1.756252844052213	-0.8609624513183821	-1
-0.13098512391390624	0.41609954586306075	0.6732066682779236	1
-0.798961232731609	-0.9609959210710199	0.6467812519445915	1
1.0487413089765885	0.2563957732196171	0.8953387833656979	1
-1.1374490728134234	0.8470747735243167	0.9571181830611353	1
0.6934397889411593	-1.2711203599022918	0.27573157852101604	1
-0.03849467361445359	0.027595143078748524	-0.6217085473086312	-1
0.3480624000233344	-0.3301933466041302	1.2820126509492464	1
-0.7064839725254966	0.44350904632397914	1.2708148053739778	1
0.6492158930570342	-0.3541718007241435	0.9406095122463385	1
0.14828318760701192	-0.16903020978304475	0.788708910544901	1
-0.38934128373472743	0.17666622553688754	-1.3174087564143835	-1
0.04304701438151665	-0.07220291771927798	-1.5074307447931772	-1
1.8284714131936488	1.936126589463017	1.9610804702822338	1
0.07355949632286667	0.5493715061518488	1.1796180946855896	1
0.5448164114226217	0.6494007843036508	-1.696556856221226	-1
0.2867487430409253	-2.724872312684435	-1.2261807802161588	-1
0.18720796391839728	0.7695071804252167	0.6233340436694641	1
1.0047655627351888	0.8862075304328385	-0.9519256811586285	-1
-0.20488272206724056	-1.7816176065666451	-0.9397783068037207	-1
-0.05069425901757649	0.220685836556891	-1.004822244485661	-1
-0.26928481710779323	0.15076706677937862	1.1370275472961362	1
-0.19839140487401233	-0.12047356277747012	2.123486239636503	1
0.7852189852457461	-0.28465431910646677	0.7242139392192147	1
-0.2219194082006909	0.3492860682769246	-1.3255774467368546	-1
-0.6253564449125838	-0.5521741967483964	-1.2572254235426834	-1
0.4513164122012021	0.27018224741228847	1.4525579017276855	1
-0.3091006480170898	-0.22926271847567473	1.3349385837873475	1
0.08871931702289604	-1.1310435029213934	1.500583233735422	1
-0.12249082300578375	1.6231146401494922	2.487641011684276	1
1.106562374172681	0.30306845415201716	-2.0928684283562977	-1
-0.7046907942222085	1.479367169751118	-1.7800271264548784	-1
0.45278456260682864	0.23798451102846685	-0.788791234725096	-1
-0.03594149224071195	0.47573248101297305	-0.7221054035424572	-1
1.6765530898826624	-0.17242339719918434	-1.796266777532048	-1
0.32831332611617836	-0.3009867807784088	-0.8703301270683612	-1
0.6600548763689849	0.15273143809980216	2.5864663165164314	1
0.9661129361181039	-0.9107054445611777	1.4088380578314503	1
0.00986044117996343	-0.19827567270132102	0.9843874075864544	1
0.7433441115701901	2.1713174916194014	2.3368865373392116	1
0.16980484906436882	-0.5037434402686046	-1.3206413497138256	-1
0.6442507289548833	-0.4704108279386055	-0.8534947526581768	-1
-1.1618154714053817	0.6616229616262915	1.7368746025350292	1
0.3444461157501826	-0.2758951358079616	-0.87919032587772	-1
-0.5704509561588704	1.1321689582780303	-1.390416209297591	-1
-0.1590611757605569	-0.509395637323466	0.7357759589948698	1
0.3538533524381447	0.5448775050435702	-1.5600388124122235	-1
0.2284203354368465	-0.28274952219058375	0.7561080786992767	1
-0.9125505629948518	-0.1397159006581818	1.1246667566423172	1
-1.3409393985205393	-1.4639856231890118	-0.9623868620403725	-1
0.7173276201583414	0.19976001506103805	0.6773254630731844	1
-0.09489525355169966	-0.7966178227586229	0.7992666888455037	1
1.2740222006966209	0.8273238169232084	1.329477816411905	1
-0.6229516273821311	0.7205161517739103	-1.2014920658199855	-1
0.4173943784479187	2.7438285171585712	-0.350715535047651	-1
0.2533445337224116	0.005228769800495609	1.0876233913396995	1
1.0043371161583814	0.33263260382002624	-1.4487414416206017	-1
-0.13832447303157178	-0.04453130838611925	-1.5291430442901253	-1
-0.8263001730208958	-0.6952879299592225	1.6011787089252687	1
-0.7924449296603222	0.12062193251913977	0.4704756231779629	1
0.8509140378132984	0.003707822120752316	-1.600853229758882	-1
0.5422448838915497	-0.641006374328355	1.0775774961647224	1
-0.2419685719186816	-0.2944536999251442	-0.27690724866500743	-1
-0.2072667960345143	-0.8995510532127755	1.5426467615231083	1
0.11983649211842325	-0.28789585043946875	0.23871656594400947	1
-0.584390635845936	2.3557284994571424	2.091538593674034	1
-0.15399358387956094	-1.293309761263812	-0.6280285764438522	-1
1.119605428513517	-1.0345621666035536	1.268795438004096	1
-0.43653006592358157	0.3000953367089353	0.9702493124719904	1
0.03033896935741622	-0.5374031493310439	-0.7706983825443554	-1
0.1895881966955774	0.3890891031475886	1.8327152836597462	1
0.621469291278458	-0.762422963293309	-1.2932393623604659	-1
0.44175276694995924	1.7078249313937262	-0.8205274080958738	-1
-2.4235267338831132	-0.1980423991586322	-1.9003058798905912	-1
-0.9399318344075828	-1.556766610752771	-1.8821168409468703	-1
0.05865066911489862	-0.8103660248808324	1.6732254394893646	1
0.06237256535222416	-0.03317551359403633	-0.3763397150796416	-1
0.2885543525691019	0.39006986899847584	-0.43338875520001	-1
-0.19645737014804054	0.31769225373542087	-2.1784477472044776	-1
-0.8708763091624593	-0.7277349584863273	1.1883987379453202	1
0.00024117204511866922	-0.3978779306890706	0.5599344553632107	1
-0.3530016933788159	-0.035962524575524346	0.6175721717915119	1
0.5537212520319321	0.9873978950105367	-2.0562327944167906	-1
0.5069435179826196	0.5047673113593988	-0.7922868509791159	-1
0.3498041824196365	-0.3706293563792345	1.6074210892247367	1
0.5246920085251665	-0.22116645587076084	-1.354534134613825	-1
0.3205155508420222	-0.3942966618210449	0.38046572506055276	1
1.281615137145057	-0.15191892276911317	-1.0123155140231046	-1
-0.5548982431028906	0.7323199954782759	1.0798677287881255	1
1.1231908959918682	0.23669072403207939	2.4173039543494146	1
0.5272281967009046	-0.10303359535017949	-2.7294147041210537	-1
-0.0794873577912073	0.8873445974007554	-3.394614445928105	-1
1.708943670989627	0.09123598826951625	1.9699993282506398	1
-0.8802150526762318	-0.24508869424516416	-0.5471024533040421	-1
0.47292772646417747	0.8860545740579849	-1.0067852150059724	-1
-1.04528929500541	-0.051387453094642765	0.7420824134491364	1
0.12761136006281326	-0.6463147923700946	-1.8257031350434807	-1
-0.31185399733456814	0.19958405822747805	-1.5164768163140954	-1
-0.27325051400908634	-0.048127180593568054	0.9428218856714309	1
0.34649138419969494	-0.6948828230017636	2.0972967937660507	1
1.78319526784452	-0.28759984026475244	-2.0560088051907	-1
-0.49874586318866504	0.034899903180130594	-0.6274517677893428	-1
0.13005247890009358	0.5438789953444283	-2.2065875353240347	-1
0.12863480191919435	-0.16939176835487962	-0.3970750481547352	-1
0.8202989061785475	0.3762830058957837	2.0822742025985335	1
0.13070281368799477	-0.39647061710039183	0.7684723028228145	1
0.5080540217876421	0.3091402596917827	-0.7439986481448608	-1
0.049107119760911824	-0.31955030453000166	-1.2667627592211776	-1
0.8527594466131371	0.31898212749853827	1.2987292796855683	1
-0.2866455952031568	0.004373256714329057	0.13062126287418455	1
-1.0085023111198925	0.40126179244594296	1.2146552623287308	1
-0.11928497927272158	-1.2369623615480494	-1.1018827081789875	-1
0.48483375521795447	1.1047379982889922	-0.5517747425319058	-1
0.5363283973660344	-0.39120405759211724	0.8516186402836954	1
-0.472345162597275	0.4282278657076303	2.393631152522342	1
-0.58002302958807	-0.43253857652047645	1.5717777523389365	1
0.7250454826158967	0.16470055197658492	-0.7286249595327475	-1
-1.8869588066045626	-1.6307485944485132	-2.896043293109536	-1
-0.5384647993700236	-0.006885604081454744	-0.6102570984767512	-1
-0.6642289348211632	1.0679492266555393	1.5395335595624131	1
-0.22324018727777564	0.46296534771228803	-1.0628771604983243	-1
0.27684316551354327	0.11754796805001869	-0.3705395862283726	-1
0.6170829669729264	-0.8690464239850981	0.873968134520116	1
-1.2258443150382972	0.3125578811127014	1.4844835369696985	1
0.39233469329011583	0.9076502226887733	0.5282210989694833	1
1.3770004776388456	0.23856470954549172	1.590507726765096	1
-0.013489167026753204	-0.9439546537701143	1.4128880815726297	1
0.571363471608601	0.276555527456966	0.8182667520349654	1
-0.3241265295457608	0.7974825171338262	1.2653769483577473	1
1.5922907190331883	1.3839731620116797	-1.2125399479052572	-1
1.3333801782455394	0.1348987394778467	1.1776933043655298	1
0.8948368047435881	1.2258959626476607	0.8143487970955136	1
0.002175265318380324	0.13676360679879562	0.8286792283006821	1
-1.3026943964805127	-0.13150650628962526	-0.7765934375720174	-1
-0.6034063458612247	-1.2534604588417024	0.8170526789834867	1
1.3267058897238135	-0.6590791522660805	-1.2154233866505582	-1
-0.26717311415829076	0.1328536885641969	1.8165727121237834	1
-0.5133580176487882	-0.6732650063193014	1.9582047744386086	1
0.4450450918722241	0.7233704389463919	-0.7715164823224623	-1
-0.507988677829928	-0.3162820341569572	-0.752389813741065	-1
0.31042104222378303	-0.4188529286756704	1.336362383588977	1
-0.716330117728472	0.47832132755291956	0.21399604450023751	1
0.023412178996104014	-0.5875841836898612	1.6903970184010038	1
0.4741769397474252	-0.5252555571315736	0.8707850167272438	1
0.06317173454526089	1.1546062423678607	-0.78274157094956	-1
2.0805736015020058	0.43401977811061454	-2.9640901614375843	-1
0.15165953704435478	0.7508263798055204	-1.771147896004253	-1
-1.0535741644413945	0.5637187319082628	1.4167092620965165	1
-0.03829543371273202	0.18806852508469799	-1.3558894364524234	-1
-0.9725775139230476	1.1725173531189006	-1.0163433587095976	-1
-0.03496124368800269	0.27621073015542874	-0.5669032912088898	-1
-1.0726229733770671	1.1182869120482297	-2.2766657443994984	-1
1.1532076320731357	1.376316109725995	-1.542264817396156	-1
0.7931216565683821	-0.511403812634931	0.7607210138700313	1
-0.9317082872895722	-0.32669963683433334	0.6357919131841967	1
0.5438230850939971	1.1294138511012597	-1.3037826286114602	-1
-0.13101830417874905	-0.3856521056531492	0.33222444540448537	1
0.5406445797899626	-0.00998946942860928	0.5994117110339942	1
-0.27201451973505425	-0.3509557178690917	0.6239960384428908	1
-0.029228731475376114	1.2962002104701442	1.891540693535901	1
-0.1276087821134617	1.48475146655741	-0.9843244559655202	-1
-0.6966269840447163	-1.1163459166680143	1.5105584394458416	1
0.6559383151001592	-0.35112770994004316	1.2603518603179467	1
0.0740819512427838	-0.18231749049835533	-0.7732700733624307	-1
1.6132857351660725	0.3961382088949453	-0.9297813590180448	-1
-0.9282259425369902	-0.01097807760210839	-1.4415042061914205	-1
0.16114882641242603	-0.708135865135477	1.5673937184199513	1
0.4158693635683253	0.5328577311568514	-0.7682670888158423	-1
0.32745253735322444	0.06887486820950078	-0.4757370436490901	-1
-0.1861715385298254	-0.5720492522089644	2.020079775283306	1
0.28938339819854897	0.03289685189141583	-0.38152631500868567	-1
0.02211055741194029	-0.3705659411132192	-1.8283797549770466	-1
-0.11049486944117776	-0.3285807281446595	1.1179877174044	1
0.4647561521207666	-1.9062987443229433	1.3488716402354917	1
-0.19179951023548036	0.9785741095203223	-1.2842817652511618	-1
1.0069632247670959	-0.17236201754876612	1.0657777068631316	1
0.7203998749827221	0.6795064380171003	-1.0793527609255391	-1
0.2789130894296321	-0.7615666612648281	-0.7838240518714379	-1
0.19628008971299032	0.2167121873160487	0.5440627950817103	1
-0.5352554564559145	0.4554540505920338	-1.058081873903828	-1
-0.2737716373777441	-0.2292235016879111	-1.2105752460063504	-1
0.027065300234196624	-0.2318067779187819	1.2916163264537053	1
0.6483070393967836	0.32014629476136436	-1.784349948194982	-1
-0.4934880350286627	-1.690999976265759	-2.8513156162269393	-1
0.010829730563976079	-0.4202874920441616	-1.3448661298511038	-1
-0.1683555483178645	0.642993825108511	1.3539128508802842	1
-1.1005770669398216	-1.432231248063568	-1.0815466978070023	-1
-0.14662844891624183	0.20280404549062017	-0.7350615579012825	-1
0.016950890728184814	0.3730966556008096	-0.8073966349167897	-1
2.885598808386523	0.49201701656019414	-2.2313877205145793	-1
0.13202584681021845	-0.5102542516377893	1.2400151809229012	1
0.7093931152802935	0.2574765973308602	1.6934534861324235	1
0.689846739364564	0.38977173405163024	2.5864159058155045	1
-0.6047922946987149	-0.32858021149773387	0.3045822256240087	1
0.12035772343761343	-0.27450057777121184	-1.2587266140813518	-1
0.382117792470026	-0.0646699048695642	0.7500363935128256	1
0.5128910460987152	-1.6902470200088884	1.9067709577102285	1
-0.4469607954741813	-1.6272449949801904	1.754020376773476	1
0.4344114451377173	-0.3068579618117018	-1.3306305053534844	-1
-0.5732304709697473	-0.7996320066800885	-1.000676841559588	-1
0.9654631498446204	0.9738620106913799	0.38767410492270354	1
-1.0391311879271439	0.17751023114655376	0.42533555823243285	1
-1.4529365524581206	-0.32780522306923215	-2.257830904486795	-1
0.06436209592143383	0.15474025395327987	-0.4529813617935242	-1
-0.33249225273209615	0.1689224798196266	-0.9988609262717377	-1
0.7263184210344538	2.2733860975425513	-0.6336080646823612	-1
-0.20661255601333856	1.1502047681059444	0.9172850701661611	1
2.028965817875293	-0.622944415419225	1.9002350818992202	1
-0.2525723193072396	-0.6623592279205945	-0.6865109875318354	-1
0.28739353377301263	0.3336766200623463	1.0448622731992212	1
-0.6125134170913709	-0.8865692239409572	1.681858241016598	1
-0.34096784267902414	-0.6256186719636749	-0.8198153693939988	-1
0.8244047537439505	-0.8474226744823784	-0.624594241481518	-1
1.5601097610957677	1.1460120982777966	-0.8847207811372725	-1
-0.5487161102792624	0.16992075847707078	0.7099829416955215	1
1.1560240245641817	1.635423260458768	1.8355145378551132	1
-0.9044857469917448	0.44301885955844367	-1.175562212398407	-1
-1.1284377256292504	0.2865686864472736	-2.1052050156201374	-1
-0.3968110446477481	0.787142793003057	2.0763923266018596	1
0.19698454543185842	0.9420828216876467	-2.2124540600064915	-1
-0.1909853132760153	-1.4946699873165852	-2.389289570662452	-1
-0.6479803632008122	-0.7021272786064725	-0.7975768212179328	-1
0.29586884578685585	0.08059956436758375	-0.6137800701560513	-1
0.9552352257315702	-0.6670466288643182	-1.9422707137643331	-1
-0.23667338837136845	2.10135963831949	-1.2135891215969052	-1
0.5596228077003209	0.3971392856234358	0.7242410585043588	1
0.408990975529233	-2.06287673798053	-3.148490566287901	-1
-0.5847770519499504	1.5037044953865522	-1.3119732122626164	-1
0.2155603292233918	-0.8052014997113149	1.174841938480513	1
-1.1600420282586836	-0.278483223762472	1.6863124543068138	1
0.46513991694068474	0.7020142267575824	0.7858587484877229	1
0.5993668628336444	0.5617229446586447	0.6656754704155337	1
-0.17952824183820337	0.25166420402082545	-0.7668425202368696	-1
-1.315001959809416	-0.2598112919540348	-0.8507547972846303	-1
0.507508776732157	0.5460093105592719	0.34579089044470523	1
-0.3400990806362554	0.11959756874606531	1.7286761274209532	1
0.24636589073387954	0.33754991583043514	-0.6652915239383266	-1
0.815023462348442	1.056360606208176	-1.1142243992681693	-1
0.5072268862660979	0.49078008387122624	0.7968197000952594	1
-0.32250249338604264	0.8772864522528249	2.1683501854812386	1
-0.7238378502812113	-0.38414669910222543	2.5835112139788965	1
