-2.1252795325845897	1.1200857278258431	0.6526665743542046	-1
0.018580296762436502	1.769674837526763	-0.1502607500888961	-1
-1.1010231613177373	-1.0682347216558796	-2.4932785364425083	-1
-0.13464175771749592	-0.08947376089254483	-1.1442605712475897	-1
-0.7075206756877925	1.2751086136853476	-0.27443845809009715	-1
-1.229311635942437	1.7040839672165182	-2.1620563546275675	-1
-0.26743225008639665	-0.8275482388641024	0.8641580016162249	-1
-0.2703095434941014	0.10763338698245073	-0.0318124172242851	1
0.5067783328429509	1.183179089451694	0.48782796772917025	-1
-0.4933316565220158	-1.993259342348437	0.3914879342939668	-1
-1.366126773098855	0.6290508824582719	2.171541232532593	-1
-0.2121306440726827	0.15594401809220237	-0.25704463094546237	1
-1.1664191689451378	0.9926245744897445	0.1800771558341934	-1
-1.5910568398994358	-0.20098441730305544	0.5135758876681324	-1
1.3550178214740154	-0.03241053782480068	0.9185797296632151	-1
1.8244472197421404	-1.288274470885767	-0.4493924055170225	-1
-0.3901854560825635	1.810644695734445	-0.7308734879515881	-1
-1.3373624251647627	1.9773943577363005	0.007737037202992346	-1
1.0566422689343027	0.005360556125459396	-0.13458735785881012	-1
2.4737395324630427	0.08750012517436524	-1.1777847606760847	-1
-1.446300828206883	-1.0125329936093408	-0.8377234991518343	-1
1.597288642590572	1.3665796463338318	0.5981608763827597	-1
0.9549465877070025	-0.754841700148898	3.2369799358854072	-1
-0.69829187311598	0.20577701916281332	-0.8722018075057909	-1
-1.0731598556938744	-3.099687276679998	0.2342341153576726	-1
-0.45088281397711755	1.120789883842805	1.317548023441028	-1
0.6855671378161055	0.7786675874374606	0.1889637763348248	-1
-1.2666338040146186	0.43113405919301984	1.0281967506205194	-1
0.3648779243203423	0.7540468738493726	1.21669941475314	-1
0.6049302886339853	-0.3115267139659005	1.5221691453568058	-1
0.5761501476359783	0.604084076672099	1.8608242639926422	-1
-1.748643247494467	2.213391663105008	1.243674581306022	-1
1.295174057872042	-3.001155324699761	2.5456553250456206	-1
-2.232731822706813	-1.437153640450638	3.400908143250568	-1
-2.0151632187441586	-0.04256527387602608	-0.3168661294177234	-1
-1.1898516490988063	-0.9161334871987555	0.9941140480220515	-1
-2.5418389248295146	0.04435639434401269	0.377225905305986	-1
0.8249492394458868	-1.8332708223247913	0.4035297048504696	-1
0.23536005935985227	0.887644004897949	0.8048373679939194	-1
-0.09579580316012343	-0.9895603742452886	-0.6932961731689578	-1
0.5739910040741597	-0.6156360619804898	1.5137469480813845	-1
1.3997895809431695	-0.34107094236621216	-0.5191962813940976	-1
-2.0222834412946518	-0.6244953309886605	-0.6325877035305096	-1
0.8191157402090796	-0.35125189113302097	-0.9771513535560087	-1
-0.28879532102583594	0.7580992575442647	-1.9650789899716172	-1
-0.8710683100834574	1.087416427336548	-0.8062703198019772	-1
-0.12107704341523651	-1.2013430541219035	-0.39395499764344954	-1
-1.9497560443381723	-0.04052511619414186	-0.2991566573211657	-1
-0.18346179260220502	-3.1218439757758767	-0.8252516524247921	-1
-0.08590416780596441	1.3415334792373523	1.8547592400042152	-1
2.3845546126592048	-1.1812606717576177	1.0161195097312576	-1
2.7002316507359794	-0.01052745828293454	-0.5163240373894877	-1
1.0387457893752567	-2.066583600309581	-1.22299739059412	-1
0.6000901545269582	-0.30422812454115894	-1.2253046131376617	-1
-0.48479321528447794	1.7963774643574342	0.2699697244330431	-1
-0.5161458894137649	-1.088076965737879	-0.5393773536994704	-1
1.5059752224519038	-0.8005952283953387	-0.23750393402788106	-1
-0.06925546629676359	0.5195096033998652	1.270895822687668	-1
-0.6437474189363286	-0.3835457014854012	-1.825071918414673	-1
0.41172576278230655	1.6122531695665407	1.310168158187215	-1
1.8567553712043563	1.2175293078799205	-0.04980070188699261	-1
-0.8100603721945988	0.9218487032166007	-1.1014794205063962	-1
0.6379079416838558	1.688824171377259	1.3012117937032648	-1
1.6026413159651949	-0.2434063924214761	-0.4372699999931928	-1
2.4253451050677604	2.0807826698911116	0.17800946754396677	-1
-0.249377434446434	0.2528905326524671	-2.744039489511165	-1
-0.7296952635438371	0.8162309758854636	-0.5182185059970793	-1
-0.3988941242359677	-0.5649718265884341	-1.808783519979062	-1
-3.2056535338450445	-0.23366388686722878	2.6244320751118644	-1
0.5894441806966878	1.210575043643945	-1.8520572272616076	-1
0.8592904679678324	-3.2567941024165408	1.3685197047369997	-1
-0.025182449133150684	-0.11315359754807049	0.10288211544662547	1
-0.7207754773504391	0.21581683075508773	1.2944006216225372	-1
1.0570666628635812	0.08113078942521874	2.5938053179226754	-1
-0.4469578750042998	0.27423320516589633	0.6944819375076159	-1
0.8222350522790319	2.1592153193242956	-2.4338456771253956	-1
-0.7696584908068648	-1.463583918015873	-0.9812733298868205	-1
0.904084548938602	0.7345014121250211	0.014356856617857544	-1
-1.6102422158501088	-0.8842349450842426	-1.5843264779187172	-1
-2.5110186408241106	0.0995894660250799	-1.6150958360083663	-1
-0.49766946151486785	-0.08742324786000778	-1.6524685568146484	-1
0.9621533960888613	0.7217113434717183	1.2957211718029626	-1
1.2543510371268716	0.48444322495298964	-0.06859005408192778	-1
-1.0528252001553462	-0.46105130343254497	-0.24861207492112491	-1
0.8999083928002778	1.306996094515568	-0.48634328865774057	-1
-2.580334253327063	-0.2951978324257267	2.6093972598179476	-1
0.66965716785977	-0.8132325054586472	1.9500710759224935	-1
-0.9615395169702907	0.5798528048805943	1.263256227843205	-1
2.0589401221720935	-1.957871181528894	-0.6268352448461515	-1
-2.6093245577627453	-1.0989722122312129	-0.8021933677414268	-1
-1.1988552077496188	-0.9920332047218714	0.020200407606040485	-1
-0.6678344214998582	1.5049247230425076	1.561259738417163	-1
-0.3810184128529308	-0.973975868800448	-2.1008228659138037	-1
1.7866996883260846	-0.01631162185704383	0.39036260736306	-1
-0.8433543900735622	0.1310930246910084	2.415649561948746	-1
-0.13186005318507	0.0005773671556941813	-0.19380692086053478	1
0.8711518725954759	0.834943071030477	-1.181455572547042	-1
-1.5823796167724455	1.16521966388551	-1.7020403010281708	-1
2.284165144960202	0.3021270578952513	2.2809214300957352	-1
1.189565472376506	-1.055252477536908	-0.5073458419042083	-1
-1.1675194231564427	-0.9625540037350714	2.3136969851668443	-1
1.578847568760984	2.1792845193139936	0.13390377054829855	-1
0.9581084073382826	-0.960010080313993	0.18812462144099454	-1
1.2906801852250176	0.5317132308112684	2.0898900970703767	-1
-2.1915826526711393	-0.6510121925363548	1.1717179781921518	-1
-1.7263160924217296	-2.3702795784080717	-1.3441151560076838	-1
-0.1259710499489165	1.8747492959374734	0.31599103464036554	-1
0.432049880623259	-0.892536151249907	-0.6334032732162457	-1
0.9799943149630531	-0.898750658141918	-0.8069650750969802	-1
-0.08308126214128014	-2.1879201936974217	-0.9800972559742627	-1
1.0093847369439866	-0.8822053404734507	-0.9852680332313192	-1
-0.7943020204044613	1.3022032746758199	2.073422019063911	-1
0.8961084894430504	-0.34883841616191347	2.517821338376213	-1
-0.3429778753031546	2.0604016641106684	0.05164154153706266	-1
0.11575346317182258	0.213306050950874	-0.18974226874648373	1
0.04123149383803969	0.0976488201557931	-0.005175813538184882	1
-0.19157564735408467	-1.6911974817849318	0.48031369172006216	-1
-0.08728128408261265	-0.9751241342581368	0.6083748511783226	-1
-0.3134468942376254	-0.8977803705694145	1.1304111212111505	-1
0.9234087428304326	0.8405010765040568	0.7927199754514955	-1
0.8071450212071369	2.634238053560483	0.12149923224150916	-1
-0.9706312899622264	0.6134583217158106	-1.0581349743336577	-1
-0.06531610964343865	-1.5385727563377884	1.0386293628130274	-1
-2.2765612403417532	-0.8471889980269935	0.9571560957177768	-1
-0.17303534118962915	-1.2069695440243469	-0.34852867691900447	-1
2.044381091315865	-1.3276057965456363	-0.7645852756571048	-1
-0.050146644202645176	-1.456625820099709	0.3014249753356554	-1
-0.1811904330062173	-0.49532565046885924	-0.585769360220414	-1
0.12526603058233837	-0.7850808083427827	2.1050124361428995	-1
0.8245894664563341	-0.23899027899313002	0.9448201940141457	-1
-1.8239014160733578	0.05944962122747806	0.31062335152676934	-1
1.203524590832758	-1.2364186771131078	-0.018225914981256447	-1
0.05958928421578946	1.5229510589072754	0.2785894421354682	-1
0.9915400331235102	-0.9861182655766121	0.14136204252640167	-1
0.28533765236775993	2.367789394232549	-2.235457021380483	-1
1.0644386081661938	1.3612944658990287	0.36880499329999106	-1
-1.198292555310417	-0.402716069447175	-0.20862079012036733	-1
0.5178297785149963	-1.7647757348438775	1.675240481661649	-1
1.2785559386451109	0.9570709797259853	0.6787363814828808	-1
-1.0823693553650295	0.36479043689735563	0.026267729601976153	-1
1.5020718718329829	0.8410795809589535	1.5369594125955035	-1
0.3960843623879656	-0.7346075350553465	1.442532320059326	-1
-0.7204276930286193	0.1082635842339862	0.2509337660629755	-1
-0.12288546605601554	-0.02083271882473549	1.1412315491103915	-1
-0.15809311424152933	-1.7307500420447728	-0.7776162751455604	-1
1.4074904942502338	-0.5735309625525383	1.0365695099685583	-1
1.5091930055543616	0.829585595477508	0.8471767109509815	-1
1.216498967079224	-0.37963710390879035	-2.112560198280641	-1
0.3349447792364249	0.9267904530744252	0.8084161336867807	-1
2.297050754980308	-0.2861745884330435	-0.15507854500458276	-1
0.21688582799563053	-0.26611573712141634	0.07847102814460652	1
1.446845412445104	-0.26965076949417277	-0.05468835736376235	-1
1.042900596376272	-1.4607247332303697	-0.7371074342442843	-1
1.2961966200736592	-0.7644413160848784	-1.6617104889999619	-1
0.042765299515333824	0.1098235277586671	0.06132463599283636	1
0.3665937140480494	-0.5544692844761059	-1.3395635221774875	-1
0.30126027013034345	-2.3426796627678472	0.6477020848198622	-1
0.9790668808752738	-0.9024751602246035	0.8877419221611964	-1
0.4305892446543049	-0.02104369194548518	-2.282132154453455	-1
-1.1007824798438797	-1.2227541184129134	-0.714156737931507	-1
1.0814165039430923	0.0387940106801123	-0.3989348256992322	-1
0.1981462659478588	0.30230342077273986	-1.5436677946694108	-1
0.4142071152962484	-0.16952088350361638	-0.853778489507048	-1
1.134244779856521	1.6487023256451314	-0.5268701572894536	-1
2.323647026143751	-1.0197472736982354	-0.010409866686902212	-1
-1.4350560995093267	1.2139426039364865	1.2113639103610305	-1
-0.08737663348533126	0.6324231186332436	-1.2953757487132913	-1
2.0396046024628816	0.5710763638925059	-0.7497122030300727	-1
-1.1237069966461442	1.7593442919064484	2.2929869138239796	-1
-0.13735668711403645	-1.0185151939813324	-1.1064787172309631	-1
0.15249766269531753	-0.03473244573196425	-0.012022023963585787	1
-1.3530777474589097	3.3707332469850035	0.8469873870215122	-1
-1.316719969560217	2.030469340446876	2.7443474250205346	-1
-0.9093618691798873	-0.4320486438282153	0.12097425902668937	-1
1.2872011567583006	-0.26611557138187164	-0.39529988509408415	-1
-0.20644005897215062	-0.044986500764499796	-0.31095000487116675	1
1.6193524957264398	-1.1403549839998477	-1.3116026757364896	-1
-0.7119222141633347	-1.1690494146232866	1.8175175058054809	-1
-1.2769083021682672	0.9639267097186546	1.1442366543275886	-1
2.462711229445529	-1.087734869242856	-0.10337204658487228	-1
-1.5037066346448111	0.4768923872852103	0.37650484753636226	-1
-0.7627887831275332	-0.8820362622338883	-0.013005624939207466	-1
0.49222691686838843	0.551480249052075	2.747751200099338	-1
1.6293552462833487	-0.4753753932779098	-0.5667268707349818	-1
-4.360864328409889	-0.5153499503611336	1.8062634255991137	-1
1.0154071049304378	-1.452742414680185	2.147112416665795	-1
-0.9004444082857805	0.12078929574961089	-0.9714219646376985	-1
1.7443359824553895	-1.1474634128308088	2.495920121634782	-1
-1.9475864419341324	-2.0164032275255805	0.3590250190163269	-1
1.6510578864724474	-1.2823669335231254	0.8493619298364194	-1
-2.585992296942834	1.1304048027366738	1.7857306556557222	-1
-0.7771463851851489	1.3897977595541828	1.9195205433466251	-1
-1.542307373716159	-0.12692447251274147	-0.9209573014691337	-1
0.14412302279507752	-0.41813553904804884	2.3682664011477526	-1
-2.9861682258924813	0.383257160572281	-3.2320080198943533	-1
0.9814088400667594	0.7903048334453532	-0.3576737615630737	-1
-0.6804616204563776	-0.1611533151396397	1.3164063452002717	-1
-1.4031459696105975	1.2305258022701042	0.030570487140143855	-1
1.078349180369772	0.12709303807457506	0.3328371696479442	-1
1.608564817732231	0.4295931080995635	-0.3425644775275539	-1
-1.2042102133895938	1.0866999507367276	1.4428887495324307	-1
-1.2736658429993495	1.1379501530065488	0.9943510082295473	-1
0.6794799750623493	-2.8760043835453217	0.7949646759058215	-1
0.5490877899043007	0.7178535902205194	1.229463302386106	-1
-0.15113329988294286	-0.5432209379472713	2.5436379097267636	-1
0.696546608066783	-1.5645690089034971	1.3626333036118976	-1
-0.3330742351767954	0.5294040864229776	-1.227503810799042	-1
1.4655995950006413	3.1630727367207987	0.9292683990283811	-1
-1.9199235258540677	-0.8992800739029799	2.94722365065911	-1
0.604348437762084	0.8357211374798843	0.05129859739445004	-1
-0.6498897224360047	1.042058681221123	1.0293024970213485	-1
-1.5397528409096934	2.72125318986775	2.2566203339339763	-1
-0.12364794983656031	0.39373723437155406	-2.78898868574326	-1
-1.5935903667385722	-1.514200376559977	-1.3505536549000428	-1
0.8152190784058636	1.1132613589128506	-1.635263722825663	-1
-1.8113696239062507	0.24337813914463208	0.6209235106589217	-1
-0.9189580062486769	-1.2779741290888558	-1.0555595803560345	-1
0.4227029213924579	1.7519090488661757	1.7431120705892917	-1
-0.2912774167020817	-0.20635809690360699	1.9637687587731547	-1
0.8385680880189997	-0.22649161773062454	1.616723381681924	-1
0.3208135113414207	-0.5795347412912641	-2.212756679309992	-1
-0.656865355750698	0.6841485774020124	-0.16313623673931094	-1
-1.9428576566964666	-0.39888224951621587	-0.5337284541535888	-1
1.488468192058136	0.8944811323294779	1.6579130587419213	-1
0.052910898749022835	-1.4362116777737257	0.10464134171091517	-1
0.087175161878588	-0.11317952609367574	0.3269120283389064	1
-0.5336625794050148	4.160741083981965	-0.37656620632632753	-1
0.3584073427217247	-0.41202822618439827	-0.7186895539834548	-1
0.014956716356455128	0.06144112625311039	-0.15742348057880667	1
-2.0549294813213628	1.8042133628259223	1.0971600206356795	-1
-2.055227805291272	-1.4144791684245441	0.5171002709711019	-1
-0.6427813876781892	-2.356461342791772	0.944339164852239	-1
1.6884392486258935	-2.3782702656576133	0.3395416427300808	-1
0.3511043237555904	0.8242514444688879	0.6060365637649738	-1
1.4714707884765814	-0.26335858620506164	0.8175715456581782	-1
-1.2753360857130165	-0.28730950031270447	-1.861195937631373	-1
-0.7317569762488836	-0.004635609479275136	1.2098536189745532	-1
0.12868612788777944	-0.10858563162806742	-0.15389830114819955	1
-1.5646855894555682	-2.036993479960678	-1.2117157382305377	-1
0.7524884242248313	-0.4703356334818747	1.790779061202579	-1
0.10904396670846997	-0.918760500363601	1.1476168563484075	-1
1.3204057288017075	-0.2008833354088797	1.325922402894447	-1
-0.8908523875902554	0.00980765421448792	0.9543633914387197	-1
0.5156224880906405	0.9763379495194583	1.7386349787167161	-1
-2.337275091643103	0.9832111484914896	0.031054164566833926	-1
-0.4896030358316522	1.477340983697035	1.2262463088784608	-1
0.21595925791298348	-0.5383201340600912	-1.603211760416932	-1
0.07900351345611933	0.4561252051988117	1.2406000176755483	-1
0.5410671037542021	1.5517343536977029	1.1538829578337206	-1
-1.0070191489921803	2.0369756915965063	-0.21886300072758846	-1
-0.2826983955709218	0.983360500491367	-0.5049263370248713	-1
-0.24556660141620834	-1.1817588687704905	2.218862925493382	-1
1.367242951969095	0.16220824999356087	-0.9604360338540705	-1
-0.8387232603558156	-0.6022807704414336	-0.6038221814702023	-1
-1.2283203181586675	1.1774690553635472	0.5331727097965714	-1
-0.7232545147449454	-1.2465552403130336	1.346817900273538	-1
-0.057854678773655716	-1.157386960899414	1.1658799466737375	-1
0.6617631751966201	-0.11570757545536065	-0.8260613158894907	-1
-2.3890306116276054	-1.7961662138622236	-0.770141092938384	-1
0.9536051736007878	-0.7173421779366675	-1.0498096854844605	-1
-0.8965932775727495	0.03770894432329238	-1.452394543871553	-1
-0.7480533403685097	-0.13326076446804597	-1.3241813885730185	-1
0.2113542532621126	0.03692636393414565	-0.4011829031599854	1
0.7407159220694919	-1.6637179696697029	0.5939917017082834	-1
-0.6006408785763564	0.5843196056161659	2.1454851863283726	-1
-0.6226253282046776	-0.18014718555775547	2.5572234595224925	-1
-1.2973157338641177	-0.1020147371148203	-0.9768676044172345	-1
-1.3517500562847902	1.0635563211840713	1.7351298614574262	-1
-1.120815807426299	-0.988770469522704	0.5590031676186723	-1
-0.34548711113800273	0.9137592497285395	-0.6066083630612339	-1
0.9955857744912789	-0.4866731593742606	0.46941647578885715	-1
-1.065678359135952	1.4143805370593445	-2.114334372083434	-1
-0.5797965296299826	0.687302551992144	1.443029611819251	-1
-0.019284008501790382	-0.021769569053369638	-0.13780605441481408	1
-1.5399999870525785	0.03747937228499479	1.9098997750920512	-1
0.2518205578975112	-2.7896802368354123	2.302834024363105	-1
-1.3807704201423414	-0.1807841507495928	-1.9198812570651138	-1
-0.5779010010244526	-1.6637064241798893	0.7757475367283365	-1
-0.410952955093533	0.916570839848998	-1.730049195633446	-1
-3.630495471645821	-0.21941805806938613	-1.8127926983641416	-1
0.4905000306144161	2.1936421686856713	-1.7911387908677932	-1
-0.12052662043586589	1.0285231971205218	-2.4410488962465955	-1
2.4281789812249137	-2.0254440845931843	-0.240916535631184	-1
-0.24685064649617133	1.0103177660515015	-0.7135659755592965	-1
1.3301675911469992	0.7356560279090313	0.42106369397663346	-1
1.2029316454705599	-0.23347578677501382	-0.3789604584056896	-1
1.1372783668155804	1.7798640100088758	-0.8806149208279697	-1
0.8513141613700458	-2.1498081185914244	-0.05292312439049489	-1
0.3376168797956256	-0.9247461433956025	-1.5078034171714698	-1
0.22362806386980189	-0.5778298870629903	-1.1261960689483441	-1
0.3751368641340219	0.006521841342410344	0.9050196040685706	-1
-1.1122536907382443	0.8169132716413385	1.0354429233247981	-1
-1.4779291404040207	0.45816961002705625	0.2625919206790062	-1
-2.139632521435436	1.095748513820853	0.26905964306213165	-1
1.7081230509219423	-1.7254867545133703	1.468183792000934	-1
0.0025167499493874844	-1.3021314708526595	-2.4339154919892665	-1
0.4543156478949286	-0.3945445489818607	-0.9325517449467045	-1
-2.9966774094456383	2.0546019919182568	-0.04365064868119074	-1
0.024992585557271643	-0.7239366162211383	0.9335216726567045	-1
0.15193655089338495	-0.26495368300120026	-0.3341521259539993	1
-0.41264492917643825	-0.3368653375515249	-2.271161757304952	-1
-0.12051308694878177	-0.010448512871468954	0.1251525808285768	1
-0.46231251465069445	0.1419059563047323	-0.6928704261793515	-1
-1.0462472796904585	2.2946334218801008	1.5496398138479992	-1
-0.9904669409901945	-0.20719091328669773	1.3531212029437363	-1
2.5136126684531375	-1.388612610689909	-0.3221046989270213	-1
0.89480881335829	-0.2514396780658703	0.738392975514561	-1
-0.6338373275051958	1.8241233029970083	-0.2774000764182255	-1
-0.9397475020231938	-0.545093726246268	0.2645866792979875	-1
1.4848489550965571	-2.2489065232577024	-1.3195926062810557	-1
0.34220181059365107	2.4767948016438046	-1.0545880935046323	-1
-0.9218805180631524	-0.8127769837951235	-1.8079905069443827	-1
-1.1927259104177783	1.198439195328271	-0.23899812844841345	-1
1.4848102868463644	-1.3189853671657779	-0.9675472573013542	-1
-1.2504704311512853	0.5406679157402563	-0.3136087157885774	-1
2.449277956417948	-1.2636368908525895	-0.7498326307751824	-1
1.5223351802249514	-1.3439193794952664	-0.4546142291777744	-1
-0.014441946761444769	0.5598934236370536	-1.037783307553859	-1
0.0605284876589993	-0.14085548632690487	-1.2643586202315862	-1
-0.32718608368608326	1.3793100277891075	-1.781814886707216	-1
-0.387075800694495	-1.3573118322640014	0.8318284453084798	-1
-0.7629187043901386	-0.9263280216733462	-2.1106966533084655	-1
-0.26562811225593547	1.0435078753969451	1.9351811676616397	-1
-1.023531623636639	-2.542261240003089	2.837839337211511	-1
-1.6300191586083566	-0.20759288196548692	-1.6110169672213879	-1
-1.0992777596023702	-0.7618549732572945	1.6615397710454385	-1
-0.5315019060358377	0.9994212110520044	-0.6101588409155955	-1
-2.4926940925117	-1.0208592223754522	0.507380850465016	-1
1.0805151296026518	0.3180342191579191	-1.1683969236030385	-1
-0.6891433527701613	0.8172354898739513	-0.9950838514395559	-1
-0.5302342297229833	0.24152433720837496	-1.3779092550160912	-1
-0.38787061458651606	0.41914726998270724	-2.360764571374915	-1
-1.2368131286522206	-0.7767382575580789	-1.2367637408981542	-1
0.6831335814093653	-0.058571841275532346	1.7603045866734641	-1
-3.7836905018725098	-0.8503120027992874	-0.6612945845017991	-1
0.4976823743371117	0.8293015371451158	1.8278126885441524	-1
-0.4100470600708131	-2.120655552660322	0.5378965658362893	-1
0.3997055757890061	0.8855969894860982	-1.1198669392935452	-1
2.210599567149333	1.0541857346370422	-0.9444781813925092	-1
-0.19437641989572765	1.0149270688115135	-0.7302068057825127	-1
-0.5825961294855685	-2.0820766192286815	0.7884471104976437	-1
-1.9836786285316097	-0.3637050502038333	-0.047533891226749	-1
0.22321859861114485	-1.0776690875620996	-2.027538515040404	-1
-0.5725463539834574	-1.5180871963020879	-0.7810961723124478	-1
-1.8319809660145625	-0.12205388340028736	0.6855218384516542	-1
2.30807121069124	1.0025081444391344	1.4250878122004385	-1
-0.6553068131778483	0.430812211252458	1.5896667580136703	-1
-0.7276907916637928	-1.772642554547783	0.19862716318270948	-1
1.8742996130311584	-1.9197964598180506	-1.4293980469647782	-1
1.8860211014934514	2.630419464319182	0.4438491356622637	-1
-0.26242849236564436	0.03259120996131664	-0.23180271941964073	1
0.16581392141234308	0.8787305193203134	-1.0768887317532787	-1
0.7157911500679248	-0.6101531948926845	-0.18653957522007805	-1
-1.403058747014517	-0.7407420470520023	-1.4160276631382518	-1
-0.37443571610708526	2.3035144862785466	-0.09125563915352558	-1
2.4159848975741003	0.5608710257862404	-0.1250263551668599	-1
-3.383698438111362	-0.2819025439744758	1.15076680567761	-1
1.0253616317547884	-0.825395283533148	0.3296154877825621	-1
-0.39009335384804256	0.9847655034056488	-1.2984859034568061	-1
0.9615987821813029	-1.5753750776614388	-1.02730552588719	-1
0.9540219612628632	0.16333006196678046	0.7335360171645304	-1
-1.1429143630949243	-0.5926050580555493	-0.933967624913104	-1
-0.07930377973330946	-1.0512113638446223	-1.5882338289891662	-1
0.48528992287584327	-1.3579966739478462	-1.073165215868982	-1
-0.3487331195556266	-0.04725921844890144	1.2622817180405785	-1
0.620805699515127	-1.327284061178497	0.7166078176472994	-1
-0.9307763600934178	-0.02316297794562429	-0.36791221921720485	-1
-0.4123158801813674	-0.44944513456258384	1.8208138153235256	-1
-1.5340624873498978	1.781209229728159	-1.3707762090392859	-1
-0.468280916003564	-0.9884870477869117	0.3915194669556113	-1
-1.5491707582896526	2.1717873278048927	-0.5060615985229462	-1
0.017619813985052926	-0.6167906583923928	1.8955175674493039	-1
-0.42306983941175785	0.9691777348898231	0.22000657277159996	-1
0.03367634090450425	-0.09629145277706841	-1.8365893214835758	-1
-1.1983156933620491	1.092595131739877	-0.4699188892597552	-1
-0.13744502366665995	-3.94939708826113	-0.35641499586746217	-1
0.2167374472140974	1.7751302888287719	1.3375508414575412	-1
1.499657090133896	-0.7495253412941094	-1.2380775469354477	-1
0.10146714502849398	0.040387263337288856	-0.03469603239009665	1
-0.006885071658389093	1.2175554255807752	1.4525347120135104	-1
-1.7132764018530457	0.6115156125972349	-1.785907587979142	-1
0.790226011217001	-0.002294756206972722	0.4334114799007046	-1
0.6025096535036036	-1.8692228058935356	-0.3833047490489306	-1
-1.231771433686812	0.7679254498605963	-0.8921827190903207	-1
-1.0426466974003876	-3.3453028263636666	-1.4224170281020392	-1
-1.3684751030668585	-0.627030044094368	0.7556722172738315	-1
1.0078084447576126	-1.764643721573455	-1.6468515398641355	-1
0.9134811604314128	-0.5706185896811146	-1.1432275118442896	-1
-0.279067943634795	-2.4954390156346538	-0.3529410371968703	-1
0.5867558218658714	1.5338815325921376	-1.6147459314285986	-1
-0.2297757089875196	-3.5617479049465293	1.6514250996365107	-1
-0.7746223016248895	-0.650422570167941	-0.760817423056552	-1
1.24564283822699	-0.7468410760284274	0.9905798572864836	-1
-1.213004861430164	0.8110568401370434	0.8999968005480765	-1
-0.633912456890192	-1.0951363372765837	0.4837137093120977	-1
-0.5483277311363126	-0.6584892973329564	1.5608724478008593	-1
-1.3549427135112888	-0.8406496532333863	-2.6507507502198813	-1
-0.5617193044461348	0.02665360882260317	-1.3963156052069015	-1
-0.9220517852682072	1.3650608501379593	-0.5072494592160001	-1
-0.3457526669796538	-1.2943874992191646	-0.6111925325387122	-1
-0.7163913869138929	0.8988661916671817	-3.8782117572372696	-1
1.7305996122543335	1.8927424371141237	0.5181780144414324	-1
0.29431792589205485	0.015134796383976315	0.3110563681834358	1
0.5686107540659797	-0.498992187062259	2.4885600698711317	-1
-0.26880628077191604	-0.3199701034452763	0.21979871599433412	1
1.098566201771213	1.4936646498793675	-0.008631251556215375	-1
0.4742463665808151	-0.2096168336818033	-0.25177827104800743	1
-1.4396196443499591	1.8611283827918088	-1.6627154424276642	-1
0.6665452431814098	1.127440779633298	-0.24818803089222444	-1
-2.159426497652038	-0.103121668193018	1.3718544495746507	-1
-1.2046934025614544	-0.47624250749974123	-2.351038607286531	-1
-0.5577768934595306	-0.956258325043649	-1.5075088273389972	-1
-1.3815936687728796	1.066732609880449	-0.6747396358513469	-1
0.07501124855353122	1.5734064576623554	1.9726003352317563	-1
0.3171883423092509	0.3668674320746571	1.2375038594792755	-1
0.785468516220882	-0.2236081998176385	3.9567515614058397	-1
-0.30453408713452934	-0.9811637298349412	0.7052840811437584	-1
-1.7678148889128695	0.4035640031833626	1.750548127948666	-1
-0.2981342493358333	3.376439047314778	-1.1245586674654349	-1
0.519218309752159	-0.8227245700573411	0.29308115354163045	-1
2.8554280569369865	-0.6594135240861065	0.6825958052434908	-1
-1.3242188053276576	0.44348316648024466	-0.906393085690486	-1
-1.4724735209908744	1.076727068619975	-3.0534908885756193	-1
-0.4192786686082398	-0.14358053169784785	-1.4656974228457336	-1
-0.892834240031233	-2.4524183952113283	0.24958225271264656	-1
0.5279963682988102	1.1376686445756876	-0.6213692591036701	-1
1.63554748609941	0.6113120292963723	-0.8897408864205049	-1
-0.48913628618901683	-1.3157635293370835	1.6762173915820267	-1
-1.537169273737348	-0.12321683069704376	0.4415693332824231	-1
-0.17843890537237667	0.7111049733261466	4.204042718380743	-1
1.6491680844238543	-1.547649372701748	0.1706147120988098	-1
-0.3444161622152947	-1.0157656716548882	0.8059003922140999	-1
-0.0946162063927209	-0.8839215822516959	1.0837085669102582	-1
1.1409686655466311	1.7178631509918154	-1.5619377013229148	-1
-1.2619272336367837	1.0171080137566084	0.5678951221969021	-1
0.10203409272631886	2.2736148883847047	0.7845941679457612	-1
-0.12197256224224502	1.787927117197702	0.5953512553925463	-1
-0.8126002772307017	-0.9360001202966612	-0.4634918931960086	-1
-1.2651803281573244	1.1249393603274724	1.657057926779546	-1
-1.860579940343697	-0.18012702845806594	1.7312121862559522	-1
-1.6046349522519647	-0.3562340234416246	0.18828833767658887	-1
0.6500419331141951	-0.8695699195117852	0.06778295890616402	-1
0.9206497974791549	2.594849282505913	-0.2954374180926778	-1
0.6565459320989129	1.1314485021980432	0.622183536252398	-1
-0.4110228015418129	-2.731844705637365	0.050393376674169085	-1
1.7340454805569125	-1.6464679225804062	-2.186754742174811	-1
-1.782154076814924	-0.10403832136725913	0.4467719878833305	-1
0.5497075486840742	-0.8810227115517747	-0.7816106906419003	-1
0.9661186127366191	-0.9907329513360839	-0.7559720967318363	-1
-1.4289970315729639	-1.0277591845016902	-0.3395450652274159	-1
0.1179424941133354	2.490603747891698	-1.730524093525408	-1
0.2566509138642948	-3.453203700584148	1.1983018143980741	-1
-0.24850773827940575	1.0044832459095179	2.143456396449803	-1
0.22085203564114578	-0.3478709716222115	-1.7605502495013639	-1
-0.7960318587232886	-0.6562874593571129	-1.0101701482936027	-1
-1.2362594539161036	-0.09154906555961619	-0.2848989062815285	-1
0.4007281042483738	-1.0377096259985243	0.5062780162059668	-1
1.738146473664486	0.6548538563802536	-0.5604273258973628	-1
-0.7251272904996388	-0.826165133033959	-1.5044350448096782	-1
0.32583915948675424	-1.8471995710679432	-1.69073083739945	-1
-1.6164252509652224	-0.5137751775281763	-1.362178687712241	-1
1.0349165724402605	-0.616512005663554	-0.5109941217774018	-1
0.1274418414416819	-0.0987155366571606	-1.4761309412446866	-1
0.8370947822401908	0.7293065504355134	-0.6918896252758154	-1
-0.7136947786782122	-1.2822835822288479	-0.6971640317482235	-1
0.14859269997213584	-2.99881906337432	0.35523831662706673	-1
0.9311121592657499	-2.2974660756606506	2.0564017378133808	-1
-0.6567500801844918	-1.0922120585642063	-0.5249041340687588	-1
-0.2611107144897075	-1.4220751322086986	0.6713068133666265	-1
-0.9484307701870459	-0.45614005331195295	-0.5009471647441324	-1
4.454595985819115	0.4180001155180247	1.832464827393331	-1
1.163606777576175	0.18536920671739715	-1.9131007135210318	-1
1.0010908417715454	-1.7709396132234407	-0.7143064601508733	-1
-1.1076972020900846	0.9888693302276989	-0.003253757421226836	-1
-0.6882590346603751	1.0893924027234236	2.486441189420227	-1
0.01841857406856855	-0.2034253194790796	1.208471312506529	-1
1.5293822524413632	-1.0292168923559188	-0.17288782558601723	-1
0.6779189542197663	-0.05205122374577359	-1.3908262650497332	-1
0.8445200476920327	0.80566095940246	0.30193196120682814	-1
0.8202097787550398	-1.7745686299478376	1.8435030832572	-1
-0.17191858182072478	1.9539795388624026	-0.714098179454954	-1
-1.1771497581128887	-0.38625510753911496	2.0177866359392427	-1
0.44810014711161755	1.169173134365995	1.186956511369235	-1
-1.0260598301377852	-1.5423434657088706	0.8182094235208088	-1
-0.5500983962683892	1.331329336332487	-0.13111085443914933	-1
1.8078148115809285	0.6953729555210161	-0.3867478648369791	-1
0.586321932692462	-1.8135078168472893	-0.9773197557700031	-1
0.9392080605347883	3.0840946231197712	-0.9158823374454168	-1
0.8189740396575924	0.11203469558581472	0.9570463992140641	-1
-1.3084710439896063	-1.3780367976928771	-0.1388412878513341	-1
1.2591735565089093	-0.5094149090282478	0.8705547546905006	-1
0.6674113208784684	-0.7760515310772524	0.00780167753355295	-1
0.13871668047643604	-0.03446771636525314	-0.4075712174109587	1
1.1639729444717608	2.0758092902972995	-0.5689051854738134	-1
-0.6772744993810649	1.0500060651479675	1.6824187090199199	-1
-2.3221530941356505	-2.104446238791196	0.11220244299375001	-1
1.441566501681744	0.8589805763285169	1.8658314548359245	-1
-0.43556124876251545	-0.5696941969262532	0.8227893842179508	-1
1.5155329257514967	1.298531041717488	0.38159401927673886	-1
-1.4006122573545614	0.2914699850506991	-0.7966221052165297	-1
-0.3557001536743292	1.5209926730482501	-0.1232022915886662	-1
-0.14295471331653148	-1.3633952158082017	0.400002444924764	-1
0.9913492877775006	1.661528190715551	2.1994467812550313	-1
-1.4436196309809244	-1.1104299898017058	-1.145717726475022	-1
1.6972407157458695	0.8886344933699242	-0.8417520177259484	-1
0.13926317244313938	-1.342432151826193	-0.6154026798956166	-1
-1.7296528047896613	0.7903272020231837	-0.18724895046337148	-1
0.3266480440312767	-1.0763908060798029	-0.07823416145572691	-1
-0.8506316150060795	-1.0383369481406377	1.0407255476974555	-1
1.355210648692201	2.070384122970909	-0.4928251779015212	-1
-1.7156476957296605	-0.082735118718864	1.1729344255926049	-1
-1.371086873004443	0.7340222517285612	-0.2579124563729897	-1
0.9105399204774575	0.08925076824116024	-0.04160170090070888	-1
2.604609443990615	-0.014021346779303612	0.12821782825114425	-1
-0.18302824774832238	-0.5259611485267406	1.1887763636825994	-1
-0.3841114800024173	-1.3402228856324352	-0.21075953814105966	-1
-0.3615367661822082	1.2418036949348676	0.5250904587074009	-1
-0.7927115205418671	-0.5954611169657691	1.3268845976482595	-1
-2.447910751269207	1.9124947340674787	0.7717555016661756	-1
-1.2723437537509912	1.5909506831881273	0.2686155505084419	-1
-1.305939808574117	-2.8464541129004783	-0.7314078358291014	-1
-0.3864173534848217	0.03020148174193698	-2.610630002741562	-1
-1.2816662268764105	-0.8179557924611591	-0.02249974509218907	-1
-1.0624758826853136	1.7830804063491235	-0.4937336346649764	-1
0.12494373010639123	-0.20506015194745514	0.07802399152762057	1
0.9162924518937479	-0.3690130184715815	-0.5802885583442852	-1
-1.6889486373300788	0.29314253435971127	1.2370951354502555	-1
3.254406307050333	2.724526183351543	1.0742688821409612	-1
-0.17429732520310096	0.010919074835021483	-0.07234607679249427	1
0.3904537012812162	-1.53960271678472	1.137569388832328	-1
0.27698885174265453	-1.15759833408299	-1.6312037477716888	-1
0.01623382716164514	-0.05944134109687457	0.3441114619191321	1
-1.5975035610933013	-1.5878408541036841	0.18634038542285458	-1
0.15316664583651524	0.18513114467974295	0.9664094128736403	-1
0.6479445143701767	-0.41505610526912307	-1.661255466821598	-1
0.21427589530031055	-1.8696292821544467	-0.5703491857115907	-1
-1.3726592321280098	-0.2423131269384965	-0.49349922344064456	-1
1.0519833130501532	-0.04595433915859587	1.6890004117333413	-1
0.12616060138345342	-0.08848728897440784	0.08352325918888909	1
0.10305655729582075	1.2269565128344615	0.8544757524058407	-1
-0.5021173220773804	-0.19302691356796448	0.9143243629501736	-1
-0.5492293707538093	2.645305694628637	1.148124159611741	-1
-1.221845937026554	-1.5574521134509425	1.661182726225647	-1
-3.4739422877950314	-2.1783270321068495	1.6281201109679284	-1
-2.5160570716907946	0.6063636829255229	-0.5329759301137238	-1
-1.3876976167290167	0.6897129812416232	2.170482448965333	-1
-1.728233415027874	-0.32424097635762483	-2.876684432127682	-1
-0.2927759997680664	-1.5188344121185757	0.44962479739238576	-1
-0.9193189242113102	-1.5650820167643373	-3.5927470280813942	-1
-0.6214392002964858	-1.3949393667093757	-2.518478361938191	-1
-1.322863185608103	1.3474531398764296	-0.7316407835428336	-1
-0.488216896420141	-1.230046747296593	1.180078618173774	-1
-1.3153095425830472	-0.194838737952772	1.0393009203108938	-1
-0.5757680384092689	0.8089455813671518	-0.9423875771130709	-1
-1.3984780903077922	0.05587185591843786	-0.07533804981715875	-1
-0.3158156128569675	-2.507431546416675	-0.7417701052843215	-1
-0.8354230074415612	0.49330094242175515	-0.7146778134986782	-1
-0.3416948004450911	3.524862353157781	-2.685837551257573	-1
0.5062068408786726	-2.433059590511645	-0.8001305681973223	-1
2.072735323199491	-0.3918621532600191	-0.49858042002311637	-1
0.05866536488099362	-0.6593745924334887	-0.8607115314096805	-1
0.6446169844316838	1.667181289538223	0.8947280829723017	-1
-1.8523038734485315	-2.188868106645936	-0.5333194036187607	-1
-0.005495007684958076	-1.820576317368361	2.381233374755582	-1
0.5907178084651765	-0.1093479259662423	-1.0293241526686134	-1
2.3455024317187805	-0.1252060820403591	0.835257114674226	-1
0.1289807835941977	0.11087386111734178	0.04809329022502298	1
1.2957430969324029	-0.9260520663444707	-1.9059487952187721	-1
-0.6609649889112302	1.5747310084402115	-0.20936698147535385	-1
-0.4549933715864989	0.9379888428666376	1.9888600148168836	-1
0.8214959982497942	-0.09485815984043829	0.7296880249686222	-1
-0.4143231068687352	-0.6080108119041492	2.319484203176508	-1
-1.0625243415701924	0.3686807146952865	-0.37573774841476304	-1
1.8745826498708908	-0.5158482667782214	1.088493978396905	-1
0.6087190960177119	0.3988547651851509	0.6679259804420223	-1
-1.246370552448008	0.7202025518644823	0.9403809784227809	-1
0.934449387741272	-1.4132357532349622	2.1756071890550204	-1
-0.31259830058735205	0.9028021865693538	0.3787657924935215	-1
0.1507373658529284	-0.25275506384621016	-2.7152833717289533	-1
-0.4228913145804002	0.3933983551421847	1.7978306909139274	-1
0.4940304843092005	-0.07239041184059472	2.1770645935242143	-1
1.9487888981895205	-1.3091596391041833	-0.9182174132239291	-1
-0.6221102819982213	0.11065796394113282	-1.0239564026637513	-1
0.5970340987893212	-0.010373222262337277	0.9740100726243394	-1
-0.1842292478217209	0.12573756134065467	1.0016266846593596	-1
-0.037687679855893025	-3.0913091534561876	1.7455636687347014	-1
-2.2874092706036326	-0.8657336993919662	2.469324207665535	-1
0.8703580524754975	-0.7916628007298065	-3.9106052209311546	-1
0.08856825894984585	-1.833636313596399	0.4044725559736987	-1
-1.432717051805889	1.4247057759467396	-1.2432268431936695	-1
-0.07586321459331086	0.05582470675239519	-0.05865321714565298	1
-0.4431214303298514	-0.4413971561055663	1.7381682842672563	-1
0.4432573069495743	-1.4961609524900084	0.711870680383696	-1
1.556956955193857	-1.639255718216683	-1.6378284875396014	-1
0.8726910544729365	-0.4631365225611051	1.6441553181969328	-1
1.9783809597395676	1.8154603068686228	-0.8432013429524613	-1
1.1698547957106449	3.1869065268341545	-0.3939107429504034	-1
-0.13222318663210914	-0.966299703100499	0.6113003153445853	-1
1.2146728413584573	0.7659500810959992	0.025672659603928435	-1
0.3143736315762965	-0.9055440792741996	-0.09292654625582038	-1
-1.675326636228737	0.12313237044804431	0.7103329169358761	-1
-0.9518587324838063	1.9876161615998829	2.1747866270218603	-1
0.03379505650627182	0.38107584432030295	-1.4829957771812294	-1
-0.4818662810206299	2.231268415588251	-2.1409686255364675	-1
-1.88058138403055	-0.9226541858595382	-0.7546594316451869	-1
-1.0066229729090521	-0.7808376184057171	-2.092218010856424	-1
0.3960994475735792	1.508776074438716	-1.0305173180623446	-1
-0.6822136550904535	-1.9779701786809964	0.13518197098633875	-1
0.2984748080315035	-1.331055033324835	1.236910075566008	-1
-1.1889609248674566	0.5173767302574013	-0.22343259197029489	-1
-0.7796564024699024	3.875256396936858	2.305644254580111	-1
0.4305164459420231	1.1649644089824496	0.752589984903604	-1
1.0539858237313884	-2.53835559409642	-1.1920916116301228	-1
1.0872871284967855	1.4447410848560613	-2.0556612226921978	-1
-2.913143924971838	0.5258143061516167	0.4942447013374649	-1
-0.4410602065652842	0.47064447135755594	-2.44370516910518	-1
-0.3489844063607461	1.185466209770485	-1.1738988724909785	-1
0.7018493583574923	0.25987621167704567	-1.5407220417475922	-1
1.3291073856623092	-0.8805327891594336	0.7951781307351019	-1
0.4558614386185116	2.160930950140031	0.20963175682279112	-1
-0.02335612589793701	1.7544595041014113	-1.4470936070509532	-1
1.0779537871391704	-1.034915716975745	2.3142791710436788	-1
-0.19136073552432714	-0.6085387750779878	1.3733987098058895	-1
0.22717959701893808	-0.020597967255506194	-0.2744386992485155	1
-0.17393808840742422	1.9375405159423003	0.7505101527029898	-1
-0.04194675938042156	-0.17895666669954147	0.10854221894300362	1
0.5381939359555492	-0.3841110089282343	-0.5478709943553777	-1
1.430862930747066	-1.3830484785801753	-1.2267836629968376	-1
0.8465217104277506	-0.6915004025821898	1.1872346712703759	-1
1.412161603254623	-2.8030630343142082	1.5572774632413164	-1
0.43005093515608606	-2.6644448641812675	-0.2715203948602943	-1
0.9347865164673497	-0.15551707657434005	-0.11462572665922219	-1
0.5587182669501962	1.713616433578614	1.0925849943667383	-1
1.226978903921114	2.070717445464695	-0.3052712360527773	-1
1.8461701474797234	-2.3735966974664797	-3.097586094330165	-1
-1.2486652929496567	1.1508360630979417	0.5973394067522788	-1
1.144723977651811	2.5200519887598745	0.01104194943058441	-1
2.616783049613101	2.3675262470563854	0.32418610343046117	-1
1.5117267930080154	1.0255812307898273	-0.11729565476300899	-1
1.4544679609973081	0.2986405787805641	-1.378946079148442	-1
-0.9215721126679679	-0.5762828570056379	0.04784403683633151	-1
-1.0576390993169797	-1.2033959418601987	-0.6595482457729872	-1
-0.4974981574509881	-0.7721229335018652	0.4568590874711901	-1
-0.15344525891416233	-0.38921660934332986	0.0495957209070311	1
-0.08219733024648884	-1.5030776394296579	0.7118551638753307	-1
0.1548595472247706	-0.4256753235275704	1.8243301821732216	-1
-0.22208373732441836	-1.9111198813365644	-1.5043449365582422	-1
1.5776475268219328	-0.5574493831681477	-1.4129960399713046	-1
-0.8490570083337087	-2.136521770189964	3.5663731435404067	-1
-0.2611904278894803	1.4365252477364205	-0.43084977877050706	-1
-0.35345101748406493	-0.9335923013674098	-1.3621326661425832	-1
1.227105786170934	0.1543051027680847	0.9361837156160046	-1
-1.5067891870873427	0.21815894427061946	-0.5269413153073397	-1
0.48355939754024946	-0.1287400952132736	-1.3993571705466437	-1
-1.7006647329587241	1.455389525611952	-0.12384205550261403	-1
2.0731510172687244	-0.44510498937290155	0.5490114871556665	-1
1.6368929352808173	-0.7436863699563616	-2.7657568689965997	-1
0.52611277596268	-0.6429674396285223	-1.6366768029363632	-1
-1.1433293450644673	1.3949798368977557	0.026383772391280067	-1
1.8675740809056347	2.0955856860488193	-0.923420529705133	-1
0.507951551763509	0.51315753753192	1.3746920660170014	-1
-1.6413550535740282	1.0075172849434264	0.16349021971500566	-1
-2.0093811121532488	1.304034356338449	-2.922668631829787	-1
2.1260020183926214	0.5574589411926157	0.022788226571476642	-1
-0.6575314336017071	0.019139470914611354	-0.6302749424281675	-1
1.0134509715712334	1.577417312316499	0.12314496491469087	-1
-0.3894656373630921	1.006488354860147	0.9952384073657861	-1
-1.9433100419221696	1.2296457782111754	0.8919866402842312	-1
0.14554380434569933	0.7826217700539361	-3.2342037982038097	-1
-1.5564148966856792	1.0366768912291313	2.5163992838646667	-1
-0.723333751229424	1.6682949463843486	0.5403267387860254	-1
-1.1625195693612984	0.3502011588529117	0.3542059721715779	-1
-0.7907870449714063	-1.199112243789809	-1.2258650555107518	-1
-0.7895844296558204	-2.2768877318398646	1.4732836026119585	-1
-2.6930766161037742	-1.7414779936769782	-2.510723931183117	-1
-0.7365842576804906	-0.44439334100018757	1.3183171036566146	-1
1.0598061352915682	0.5578926447898511	-2.6529503215965096	-1
2.004966546133383	2.0189338994798183	0.2877798014943663	-1
-0.06753239930335271	0.014724978002732281	-0.0829964791810367	1
0.646233640220495	-0.2874515218574897	-1.0812495943933054	-1
2.3746386470605714	-0.767717543183582	-1.0506844856203028	-1
-0.87998112087023	-0.04559890687639537	0.21517274926828478	-1
1.6912776146348376	-2.100440204983151	-1.929098145367543	-1
-0.13842313609655713	-1.7099125419761745	0.28347805871462034	-1
-1.2310602678777898	-2.082510926602188	1.3968641966759237	-1
0.40904999097484024	0.3335799924596563	2.749209300553819	-1
2.4461896306400503	-1.5168558910341288	-0.4983885116638328	-1
1.002242811693405	-0.5049666418501491	-1.0922620697613006	-1
2.089769625077847	-0.12655747000128462	1.2898929740071514	-1
2.8010476589930144	0.8991068160781257	-0.85185131144672	-1
-1.5458529148070526	0.3561674257121932	1.9837409341837349	-1
0.16670991732346746	1.1556089331043482	1.1745532492522088	-1
-0.5844052151693377	3.5472629871269907	0.35945238100472443	-1
0.32195764841245533	-1.8338326426370648	-2.0595596261106843	-1
0.4029181590966302	-1.155713530624421	-0.8559214717692849	-1
-0.4665959570887022	-0.6344081359772464	-1.8337194407169568	-1
1.953667276154609	-0.6095101894121002	0.5139713785954575	-1
0.5184196266746659	0.6901146169232129	0.6209889002331229	-1
-0.7957897117058381	2.1272169025018473	-0.0674306277009862	-1
0.9142726315956745	1.7714423759025206	0.08414397266709686	-1
2.0846449123369246	-1.03731711640243	-2.0296332576841594	-1
1.2770766438628405	-0.6947408800072388	0.0009373385107868102	-1
0.7844685068491516	-0.6529929855571914	2.075141495139876	-1
-0.24321953899225807	1.0904240666534797	-0.7693996831461966	-1
-1.0366192340709046	3.0617568709526406	0.20311759714769123	-1
0.379901040049898	2.139941864364496	0.03830428315525593	-1
-0.27216937713049366	1.6802389043926267	-1.3038216775331783	-1
-0.65513485889549	-0.5571021947622103	1.5962630584790447	-1
2.4093944969451924	0.24595249286542578	0.47614155081291465	-1
0.13646709110650743	1.6511698540468998	-0.3453346587037591	-1
1.4389375834616014	-1.012185554439054	-0.5337870946356217	-1
2.246826792560059	0.07557243855017373	1.4680050107194618	-1
0.4231196978511354	-0.9569519215032632	-0.7627200730958701	-1
1.6365473950918976	-2.7381772991172704	1.0709320441834838	-1
-0.006181656272226292	2.015936512698733	1.0472288226483653	-1
0.09889485484911903	-0.1888468589504279	-0.33143305010458385	1
-0.9846117786555089	0.9786857049384815	-1.4988630189711438	-1
-1.1099925113108617	-0.23369006972623632	-1.7540315883639725	-1
-1.1632076972163337	1.0224083869909262	0.0434458432973852	-1
1.1512986792742166	-0.9382434800624726	0.3567224910238046	-1
-0.8618342115315883	-0.5129521830161293	-1.8392756043144245	-1
1.8504266407664245	0.25604178562602764	1.08706696377727	-1
-0.7125653964694434	-1.2610523630347985	-1.196050179672468	-1
-0.8157980849906529	-0.6993185637266075	-0.7293022714902171	-1
-0.01573937637570038	1.6853762719024612	0.7099515105145504	-1
-0.6941150644984768	1.320194369433097	-2.05028266990908	-1
0.46231810786909744	-1.2447957208669718	-1.1328199607578404	-1
-0.7917963824633867	1.6164232839603268	0.09699046357181171	-1
-1.8509072103910054	-0.3255437408218706	-0.2801443554421162	-1
-2.193165384906198	0.6117783717133978	1.2083722708586562	-1
-1.6473896924264237	1.0314224065670805	0.17946254910711748	-1
-1.5085328151755848	-0.7110878872087996	-1.774157615800545	-1
0.24260334380849383	2.466671295768173	1.6568374974083002	-1
0.6008202606002799	-0.6571636126944258	1.3209707847476402	-1
4.735957166953064	1.0633280447719344	0.7214153213882782	-1
0.02932742905548026	-0.01108343530996695	0.21674346616284237	1
-0.06411135662474546	0.386752099277174	1.0695259279080689	-1
-0.6067941884192373	-1.1734262496732786	0.17454561047481565	-1
-1.4477381644234684	-0.011177154634236481	-0.24874525510942008	-1
2.560670504236282	-0.5069836266210115	0.1703829959128491	-1
0.9847296488850829	-1.9031681886742406	1.6406689870649438	-1
-0.06738105751403864	0.24691941256945937	0.0032376040098484405	1
0.5584326818577953	-1.6731694061875635	-1.5678781403887738	-1
-2.3719766175253536	-1.0561885374876985	2.1750968607632157	-1
1.0630607855227159	-0.5252687064024715	0.6184446982524437	-1
0.5958679733256431	0.1286264124970644	-1.6562872725118534	-1
0.9094852338507896	1.193374876617551	1.1298381020323172	-1
0.5766961604528181	0.07166251744317981	-1.303174740757072	-1
3.1021389775935884	0.380171619064515	1.14638913036522	-1
1.770086507422187	3.150808204753112	-0.19756267367487182	-1
-0.8088368573703644	-1.1687992714649864	0.8179026029579546	-1
-2.1931482035079624	0.8056049493337177	0.5130456083548823	-1
-0.7884962856177455	0.5465237665642566	0.9291555558562506	-1
-0.36936587597377457	-0.9002523526498198	-0.34219948374032866	-1
1.021807400689791	-2.037346420904093	-0.5763746495886777	-1
-1.6894138511330719	1.9516583537611147	2.3445833075154265	-1
-1.3814203997907768	1.6323809428643803	1.499818065236074	-1
-0.31806322203555315	0.4118822193602852	0.7206814051355086	-1
1.1007227974314095	-1.2167216989222138	0.5273311947817584	-1
0.1652949182180415	-2.694529613674624	0.6179841785427642	-1
0.3956630785359104	1.1467065801101461	-1.5512515788070922	-1
-1.3201812328545905	0.25277497043342734	0.7857979266871229	-1
-2.143569567110808	0.628199970710942	0.6561239327005199	-1
-0.6194156971433282	-1.2151909734977935	1.113545590045731	-1
1.3088266981114043	1.9270960335486491	1.4043765817651948	-1
-0.8092944843610136	0.2949059219317035	2.2153146221935938	-1
-0.3765052830223455	-1.2102119051853206	0.45169162982202027	-1
0.12843025015738416	-0.4127963841950223	-1.1815606621537773	-1
0.09219703396410514	1.96724938029827	-0.8079811816653898	-1
1.1376052525006877	2.4447391280777837	-0.1857315174685112	-1
-4.039446662790306	-0.7107011725707754	0.16323445041329912	-1
1.26500454183183	-1.6839310285655495	0.884378655239968	-1
1.2093446177443217	-1.238874314396216	-0.8496371479880964	-1
0.7939037100056447	-1.4845577887836954	0.3307623512826696	-1
-3.1879727272144707	0.369130693268954	-2.579683882318206	-1
0.17803175762906712	1.7097082657613152	0.797534178686959	-1
0.17908546964720579	1.1482259904060448	2.076186990138262	-1
-0.1356023514106304	0.40160623828579767	1.1004320142720552	-1
1.9620348149301226	-0.4634819101073305	1.751620571788461	-1
