0.8106905199603156	1.6631378917049684	-0.5446794764322125	-1
-0.1283229481874371	0.7580485768246353	0.15768043799915465	-1
0.5059434147155369	-0.9544124094219902	-1.1015874626902211	-1
0.13586937989150266	1.451236682360285	-0.4318364980986916	-1
-0.15334930964312418	-1.6507626912556934	-0.40827721664050265	-1
2.3120348247963705	0.18695797631121241	1.1253312799048418	1
-1.8599686712867696	0.21141393920535784	-0.8711905597319138	1
-0.20197769379604927	-1.4227600607581012	-0.48071612350590215	-1
0.9917715762515376	0.21923058066800222	-0.5627362258615832	1
-4.365480318850837	0.41092312198399733	0.6574518982066104	1
-1.0824781847099736	0.04318883726469111	-1.2479836466582226	1
-0.5148019039763191	-1.1579283389595862	-0.1909415986846248	-1
-1.1094826344563329	0.3146828414239278	0.1692553636480482	1
-0.8113289793179317	-0.2612577250413542	-0.6190747434174773	1
-0.6800971161013456	2.510219770341781	0.09420347086338683	-1
0.2592855631374691	-0.9785577905612264	0.5711029710668323	-1
-1.352415911997354	-0.2018390704007708	0.723400399375049	1
0.7826711391049115	-0.025382793720558187	0.7870717040551742	1
-0.683637702890556	-0.10385592344639635	0.18724393336631412	1
-1.180043937628036	0.8584018172930492	0.31383278217007604	1
0.15965959457939696	2.3552197414888867	-1.5848424446973248	-1
0.015556756266500629	1.456307277441914	1.263286798889955	-1
1.3718367332639139	0.17660888423722787	0.41169342284002136	1
0.6552353155856975	0.21982918072022156	-0.009088931329072805	1
3.1098223326602623	-0.5035996488969956	-1.077528156052224	1
-1.0733206697610984	-2.2857833831444636	0.30342538030052535	-1
2.1387213679562187	-0.1662918477936557	-0.03290738812747311	1
0.17604778114729497	-1.4813971647276487	0.5064303931821907	-1
-0.24268967567695024	1.0917736532048419	-0.40485682009413726	-1
-0.1569806416516535	-0.985565970843013	-0.8092252214628283	-1
0.024902926774892357	-1.6789764610825664	0.38517930818376944	-1
-0.5063939279654731	3.0704981229058452	-0.2750609617328046	-1
-0.45296875538463466	-1.01536997724039	-0.34260021715568256	-1
-1.8127153122291324	0.3892623549174433	0.15882235998644773	1
-0.678253782571191	-0.14613641348392023	0.12328004740512835	1
-0.09094805025546451	1.2595111976805882	0.6226519728071054	-1
-2.8533669000798403	-0.4769652303247936	0.3912987478522501	1
-1.1775838171545938	1.6286254678602907	-0.3487666170619167	-1
-0.6289378340438946	0.31893549917833636	-0.23773103494289216	1
-0.5436857178355079	-2.018986928864839	-0.5957253784183727	-1
0.7957112218809332	-2.085913214212272	0.9214737241802391	-1
-1.9705774416252848	-0.0998459921543329	0.3428441663476429	1
1.1267261220769718	-0.044621690204257825	-0.18348544631099498	1
-1.4954154695543098	0.20383623612238283	-0.48596633695894786	1
0.3257224487435628	2.0586864888195624	0.5600345668469967	-1
-0.5721379823381507	-1.2168760420545395	-0.01336175731397213	-1
-1.5398567868605257	-0.5590164876037118	-0.23072907241398966	1
-1.3909037806776743	0.7007605309894405	-0.3552499288707752	1
0.13542450813287504	-2.295786607573544	0.5364823002978184	-1
1.8044197479957371	-0.1666652263114401	-0.761309324076155	1
0.42328582513497715	-1.462410766772689	-0.42774967876387904	-1
-1.0350446358042862	0.0018445740687777277	-0.06621621941681888	1
-1.5157030376818756	1.2759708932452543	0.4011922938583211	1
-0.22419113783270456	-2.0132052558916183	0.8543329866934296	-1
0.8583902971806809	-0.024171672495056362	-0.21604106015453928	1
1.3321716999512279	0.473043347094089	0.3034658382888197	1
-2.1248054301928154	-0.19565904711254448	-0.07673965812100884	1
-0.8147580270337175	-1.659009976449177	0.029216441306466185	-1
-0.8259968996372391	0.5010822561726518	0.339354135464548	1
-1.1963103014177636	-0.41029810786932186	0.9147731652940769	1
1.396003931292281	0.4181265008658104	-0.638146574880181	1
0.1291213126425928	1.9858061319134264	0.1281024690096326	-1
1.0626864451335962	0.023498290487955573	0.8394174650616588	1
-0.16036467691545167	-1.6582552302091957	-0.4937085520948554	-1
2.205795682527276	0.8845739033224043	0.33161118469674394	1
-0.10805837839377555	-0.8943007057243949	0.033258578673511924	-1
0.13578916912384548	-1.447661256485202	-0.13640699827648278	-1
-0.6961270197902768	-1.5932951153027446	0.78437011019824	-1
-2.488232357788514	-0.5633872801124584	0.04255013698604661	1
0.10435673978814425	1.0916816092979889	0.1883209347185485	-1
0.09429839775139782	-1.1313082731302042	0.00782589940303815	-1
0.06492439316358467	1.9328906877907537	-1.1682009400552251	-1
-0.1840029711785534	1.0986869835339397	0.18973332901005505	-1
-3.417627764386849	0.34034168330677184	-0.15072752759003014	1
-1.5208709907422144	-1.0117626019014296	0.37808387109473085	1
0.01020143210979064	0.9767671663256872	-0.2766202924661024	-1
1.0157145945923984	0.20185102095529606	-0.5691725362619978	1
-1.4422161596858623	-0.194441078301211	-0.14609359529657662	1
0.05997997906571352	1.8062872987281993	0.4022037420278516	-1
1.8360219663253636	-0.4935512922261787	-0.3465865380006857	1
-0.09268710434545453	-1.0433622527214501	0.2635420874320834	-1
0.10659849219854828	1.7030856372333472	-0.00579731091265862	-1
1.4673204829473063	0.7682367304747999	-0.2206550842789105	1
-0.07001549105945717	-1.041950709868655	1.3863362441077194	-1
-1.2335190329778223	-0.4271870293433524	-0.11828894977591278	1
1.5977211259200828	-0.11233138176228705	0.5620736728041338	1
-0.8824331075960663	0.41401682371506343	0.4728075776087014	1
-0.9975396421389787	-0.04645527008091434	0.4232382919177909	1
-0.07816007098914317	-1.5276714687741768	0.833868996128275	-1
0.8689032655816316	2.3165620159232363	-0.30087100488389745	-1
-0.16910960803379485	-1.6040771555182192	-0.9455775638462687	-1
1.7791373597126994	-0.020004664966428165	0.6968320409055335	1
1.122747904264768	0.06094188395750909	2.08516493164963	1
-0.3714108226354339	-1.4900855692654487	0.14892627605968473	-1
0.12294314020857533	2.28540598557416	-2.014273225217251	-1
-0.355267147978766	1.2016266615478748	0.3091415940427615	-1
0.7400889783254613	0.24119134833690306	-0.22943306458403048	1
-0.5219762054328125	-1.6764592872931987	-0.9322974229445822	-1
-0.2514914316106281	-1.141071977358063	0.08513248105775639	-1
-1.0610346413432943	0.3796609995228598	0.33209555597531853	1
0.07064439566798962	-1.044517340353471	1.6127314600048188	-1
-0.826093748648685	-0.5135878553731374	-0.596641281140882	1
1.004177468832142	-0.11118012106537237	0.1524270981176295	1
-1.3970114889692022	0.005975980195446973	-0.747065447791151	1
3.615681582709528	-1.3741854706419363	-1.8632466879553036	1
-0.6473622270607845	0.2264353064271245	0.6386315424295895	1
1.0025338011297886	-0.23243128749109637	0.1961574574200419	1
0.46552213951337196	1.5082614610648912	-1.1021267730956652	-1
0.2573530326713755	1.2356946838251202	-0.3624222659599568	-1
-0.622466081850255	3.0410445867636042	-0.36680372770176717	-1
0.978661003928151	0.3745446452079698	-0.02750159014850991	1
0.8670976054251631	0.2738488761458419	-0.10501637653838876	1
-1.412481897337923	-0.17936963450129295	-0.7881192877612985	1
0.20506858961374363	-0.6308449949334924	-0.05836550337522821	-1
-1.1846879411907434	0.9916072590786229	-0.43647053119576285	1
1.4040993725815976	-1.8128739641590095	0.08090331550109507	-1
1.1144187535263423	0.42402170786691773	-0.5217486823257349	1
1.565656112508376	-2.212951593301642	0.809947926947714	-1
0.35982485392574276	-1.8625749317964844	0.15517222807351777	-1
0.03876762871821065	1.9294184910766958	-0.24366072162386243	-1
-0.031709040240493085	1.2747118647807518	-0.6977579028063091	-1
0.06281758218108367	-0.7331183693820786	0.18217893107081864	-1
0.11653005247035725	1.7113303834186753	-0.37456849046708457	-1
-0.0019058471744681784	-1.5083804722639704	0.06078633631518538	-1
-0.014719270090234951	-1.1454244648964091	0.44525082498854857	-1
-0.6549617876580365	1.913348387361725	-0.24048742998564082	-1
-1.8614447981987894	-0.313735792744788	0.6775686536544239	1
0.459388284711183	1.0598137849945726	-0.3702419041057793	-1
0.9475415540642392	-2.0611657584602945	-0.18795414048341463	-1
0.8839424850004505	0.4517173815494229	0.7091815450166679	1
1.0287451094501083	-0.0355738421753074	-0.5362672618194282	1
0.7858434177362712	-0.22222822676711462	-0.36050769225631263	1
-1.4173173922480944	0.7410674334035523	0.042735713817284735	1
-2.081192444090303	-0.007401613658389667	0.49236140660569117	1
2.082121326974512	0.7202483512950348	-0.6089237530766802	1
1.9032650348917626	0.24302188180346376	-0.2920143406380542	1
-0.5702546738161182	-1.5122753319374778	-1.1692484591841747	-1
-0.24270043442276967	-2.1014786652569164	0.6822174573289808	-1
0.8451589643257129	-0.10778833297453266	0.1806318828167546	1
-1.7359995863122237	-0.6482348803250791	0.49085264394986045	1
-1.9258296085626125	0.6898462652714632	0.06370645625226462	1
0.611924202119922	-2.3039266262312066	0.3890248118402254	-1
-0.48308445288604746	1.6161268799731836	-1.077570624049178	-1
1.6496096527447128	-0.589857864807648	0.4164392312942376	1
0.46890623973693857	1.4795580708385567	-1.1446033009978396	-1
-0.13672390803269818	1.0554164701851216	-0.2735377592071643	-1
-1.3852854029036943	0.648029282954575	0.7558014385490323	1
-1.192377723464741	0.86586618831034	0.9383690415439363	1
0.8365845044175484	-0.18936784542229793	0.435498425445616	1
-1.0319936183463618	0.012965330427233232	0.6624527212570207	1
-0.9963275266108106	1.661966003485871	-0.8847418853174879	-1
-0.0194537015039491	0.6825633923507889	-0.1334005250642457	-1
-1.6914009660351907	0.16803292568127273	-0.30284161437680435	1
-0.38556868534530603	2.364406226286559	0.5699429486063532	-1
-1.4806284813445982	0.18510365988145153	-0.052820946518012425	1
1.940147593122138	0.07260693425809715	-1.5850435549452375	1
-0.17397174272169735	-2.2809810256215646	-0.16898439276776006	-1
-0.030891563777766574	-0.9534142586287162	-0.06419803194035972	-1
-0.5192231294774907	1.501104067100108	0.14312780318667273	-1
-0.2570648575402946	1.5470666784386724	-0.8767106663143076	-1
0.5531563649298006	1.3564851669640314	0.6338056862667242	-1
-1.8539584262324071	-0.5710187831897537	0.15006985075205848	1
-0.01104345997464868	1.7204467659482132	-0.5082425474113611	-1
-1.4328363804067448	-0.46319630193208583	0.650377572615156	1
-0.587013865104613	1.9017849967540923	-0.9748653863252087	-1
-1.5684105624973248	0.5096921104280788	-0.3802517682689879	1
-1.3332865203813735	0.1431701276796109	0.5921743484268462	1
-0.15431793241257094	2.3434054129950317	0.7716994015867302	-1
1.1245287952797511	-0.15669411628172103	-0.1288714983073505	1
0.08946508057742138	-1.3585490641787192	0.5983880753644094	-1
1.7983469180980314	0.23687124193536824	0.02495161996763278	1
-0.6669449080273459	0.03939990233502338	-0.38455336495358083	1
0.43020785603044615	1.7112160523895064	-1.500280310570389	-1
-0.017946782129074502	-1.5390336907830084	-0.12115757166742405	-1
1.0608531847024527	-0.13634293891325072	0.2689741833239186	1
-1.76316165593144	0.05010362421326001	0.3951621315718771	1
-0.7491082454768107	-1.8053244720601196	1.1918598130762015	-1
-1.8861798312094078	-0.25354349787189423	1.253769435645742	1
1.4917327134270706	-0.09605447710238259	-0.26621983047258824	1
-2.401909522648931	-0.04355787416389867	-0.2295190464033754	1
2.1032138191512533	-0.8773760077022101	-0.2826301996819697	1
1.9481358589956663	-0.02416880812454144	0.3896501633612559	1
-3.5637640967159943	-1.1439408540204745	-1.7410143879168507	1
2.4432646946120236	0.07307740589798883	-0.7418325598567842	1
1.4692664304800958	0.4942667709735066	0.9942988948824453	1
-0.016493858468459258	1.3150315092516465	0.9329190562886664	-1
-0.7983702525433449	0.28622204976602417	1.1809463296597786	1
-0.20649127440356424	-1.063841967138495	0.17171658431278258	-1
-0.6186187074144872	-1.6886306803968347	0.09749858049172246	-1
-1.4112651552133224	0.15353370575303657	-0.5299188354912985	1
-0.31939046671249416	1.7433967028354722	-0.03822113168445377	-1
-0.49503521562131875	-1.8124260517301516	1.3164492758388162	-1
-0.3065871373952623	-0.9102956698902092	0.35148785288802237	-1
1.1740534552512765	-0.4704305451947034	-0.10197680019447633	1
1.1848173612373334	-0.19094060107322847	1.545794720953651	1
-1.6906195914159774	0.22337496423802816	0.3515556074798599	1
-0.021297168816039116	-1.24573597894389	-1.0043581306712475	-1
-1.9668425706648915	0.6857016752996233	-1.1573580440267626	1
1.9650097716576893	0.1603665370278441	-1.1840048504081586	1
1.5749209195100287	0.2227290997000908	0.5593078920523171	1
0.0006094137569734763	1.4036030704238156	-0.9701125963232113	-1
-2.2051143901610173	-1.2746375125525908	0.4376179090602484	1
1.047394274681984	-0.17429564718120352	-0.9464399487492489	1
-1.586046949208313	0.11183097992467747	0.33003013785050017	1
-1.1276023960969108	-0.5460827424254087	-0.3292821779435276	1
0.28492029411497033	-2.3907120675166276	0.3302333310507043	-1
-0.35371628400012445	2.031802589536711	-0.1903322144728089	-1
0.39366393407826483	-1.8844344186130555	-1.008430931380666	-1
-1.3334475742617526	0.37352986302624475	-0.09878921335479053	1
-0.10942672645657753	1.2414393519427023	-0.6392049441325798	-1
1.4373439562603365	-0.4166633477778726	-0.03293227317092709	1
-0.7605281592395761	0.04054899305014549	-0.030217663391909844	1
2.9947498213843193	1.0068674708771144	-0.817431968906583	1
-2.285397398477426	-0.18815543114286118	-0.5904485027442203	1
-1.3905059096315724	-0.0017318552398914602	-0.002616107760795729	1
1.3705386103746728	0.34358531560516636	-1.1542670549750031	1
0.3578371866622048	-1.7242659272290042	0.7022479392860178	-1
-1.7588058815577465	0.6470535944426457	-0.5239766567908559	1
2.853575548112483	0.0796564078958773	-1.5360713693322599	1
0.09365589866759284	1.3468970805524374	-0.212965479041514	-1
1.6727365576412467	-1.0035095340753863	-1.0930305269045442	1
0.4603601628295287	0.7937070325354172	0.3299979970048802	-1
-1.3126228981723758	2.018369526558533	-0.7970269218064586	-1
1.5318987289649615	0.7846871642906962	-0.7005625748140627	1
0.14922286679481112	1.490265345851201	-0.5115761127945809	-1
2.0410717130501617	0.7416960611320975	0.08057822197563466	1
-1.210808245393321	0.30833530970908	0.0021412794044001174	1
-0.19327231627612024	-1.0931572075651534	0.05353105486587309	-1
0.7323911604111919	1.7357865671189727	-0.007999057563390677	-1
1.2485158426267553	-1.743237241860482	-0.31470640580946496	-1
2.248987113014153	1.025838305351659	0.8400533793301788	1
-1.1787089067281535	-0.0006127302117262504	0.04366926113548409	1
-0.2896162204996768	-1.7631378001154006	0.9638192566054685	-1
0.8412800540450966	0.47133369019745874	-0.13365538990744158	1
-0.6223200548782613	1.1619651038305998	0.26044815972270896	-1
0.937958324548396	0.5287554437327104	-0.17876119304530735	1
0.13085239058028353	0.9202640504836747	-0.5868992958536086	-1
-0.9608135175701225	-2.3213317981556614	-1.4250193077399693	-1
1.3921921365697805	0.2825457602319105	0.6556772965669152	1
-0.25596312273938354	0.8281232404992434	0.41483101586794746	-1
-1.729426545483674	-0.5035909923934713	-0.440286634662797	1
0.6962480616840492	-0.06475955930691606	1.3036637867498317	1
0.2988569102528631	-1.6220353423227976	0.2997503434661568	-1
0.9270408441559882	-0.2518036657775581	0.09419042899329717	1
-0.6865189813473142	1.3337347262127865	-0.716256972426972	-1
1.2264297614848432	-0.4126655377950692	0.39381478827132727	1
0.2564193743129125	1.1150551480269502	0.018443999627159854	-1
-0.8294501338967222	-0.4523562640071897	-1.616128534785709	1
-1.2665957670646117	0.15929481690652747	0.0895216694556273	1
0.030195499120445713	-2.0530354603258387	0.259164718595573	-1
-0.2118261223283589	-1.2975258007057129	0.7027945836510117	-1
-0.5890337934020715	2.3481690124078827	0.9403389365479642	-1
-0.2072433422308118	-1.527062733151584	-0.36984096150738244	-1
0.560408602936617	-0.05642580513233175	0.20712293552258745	1
-1.2084434463230362	0.753526775493783	-0.5017673358453609	1
1.433446604995416	-0.4137342356364996	-1.0376149806867498	1
1.5842713928995897	-0.4991255775865858	0.3329653782492852	1
2.2161874253472273	0.5476147629404433	-1.1811688162766911	1
-0.6537341737528073	0.49350279689715293	0.37770624334664515	1
-0.2325300633028039	1.56319696673047	-1.0118903770449745	-1
-1.0284313658169677	0.04278517981831213	0.1879092442164147	1
0.9281122763850282	0.09441002337350698	-0.02484255504709984	1
-0.09976246378997611	2.313121667874875	-0.5745470024081978	-1
0.06484608653062153	-0.8992461426702941	0.5766560267416727	-1
1.9965671770625868	-0.3608269136654355	-1.2575212221775809	1
-0.8526905369384714	-1.3000084358338087	1.3808556228758386	-1
0.6524049480163352	-0.08549311828563495	-0.7221981977393175	1
-0.01200465327985017	-1.562075119994706	0.48664643664488105	-1
-0.32608873486155154	1.8106473674711152	-0.5404270765539279	-1
1.5777412956132377	-0.37828760769021985	-0.9336754328533896	1
0.06921047008426871	-2.6644797910650944	-1.2030041602307537	-1
-0.1877013940742963	-1.2085114362808673	-1.132793040349175	-1
0.005614025175469505	-1.30955128001437	-0.048502494008047695	-1
-0.8687493215820875	-0.12144202671351674	0.4888873379712806	1
1.0363160696001996	0.530985104393755	-0.41225681242917445	1
-0.3530566452586018	1.3393031085849283	-0.06045579737506293	-1
-1.700018530839465	-2.5344315661906363	0.6599499583236621	-1
1.4958507305335154	0.37372661148048913	0.45607854228462474	1
-0.28737321628105417	1.491087319371395	2.020649606961179	-1
0.897181500074313	1.4983346350281341	0.043734603673992706	-1
0.3320126171431984	-1.5306380266430692	-0.09295079094917909	-1
1.0619591368962586	-0.26127533265048	-0.7428793340752946	1
-1.1314857738886852	-0.0687874243257448	-0.10342970966349654	1
-0.8413784583945115	-2.517061641769395	-0.5154415138226442	-1
0.1939905180821713	-0.6785440871395513	0.8492811577994464	-1
1.4953631568128014	0.36557707853755433	0.3364757731084864	1
-1.2855214231028218	-0.33120676967160956	-0.12565437505636945	1
-0.14171243164506192	1.881470970221905	-0.3043343595846613	-1
0.6536216735450237	-2.1648163650449526	0.3291284228726127	-1
0.24212652280084168	0.898461858946473	-0.4892589097880805	-1
-0.17647934399661586	0.5925761521094419	0.24788761701282358	-1
-1.0370385665052575	-0.442646737546162	0.2981568933437237	1
1.883688158575901	-0.17930667746817724	0.18764011670910496	1
0.3813274505919136	-0.6672327684234864	0.21396856218123178	-1
1.5440648441196778	0.32378277449046705	-0.17411935986092114	1
-2.172755636155798	-1.45529155681484	-1.248011579700123	1
1.358947853198891	0.40695045455568823	0.006459124595175496	1
-0.4510469523693199	1.1553632730062824	0.2916642843097077	-1
-0.9270034254370497	-0.19805599063627435	0.27372425971602626	1
0.3530512856168207	2.16994430804666	-1.906868118081638	-1
-1.5852932998219105	0.35283243319057844	0.2942306736583078	1
-1.1026750275771877	0.4964531798262535	-0.05075418747903002	1
-0.2687010832515473	1.7140544090432726	0.18910193634930145	-1
0.8897839389864135	-0.2613784424611554	-0.36867190978776	1
1.359168935079123	0.4097804967800033	1.7062527866167887	1
0.32071842704778075	-1.015586159413863	-0.5855708475651533	-1
-1.1615455474215377	0.16934227395343607	-0.06304086941504825	1
0.8945049286415829	-0.07426332925848181	-0.2725418138145437	1
1.0364018029523294	-0.31619445694342946	-0.7425340241333945	1
0.057845704634153484	-1.293566237129474	-0.06985946011509904	-1
0.5401015347604016	-0.13296116413281636	0.3390292312576959	1
0.9393129473663905	0.6315337489289858	-0.8879296682957174	1
1.2457383538312174	-1.905363013741832	-0.17767625865191264	-1
0.23123416326531687	-0.7265347351958207	0.4625104397330614	-1
0.3484357953635178	1.3538758965265099	0.8145381256196514	-1
1.8483521863647987	-0.2674064351395021	-0.4650735066490872	1
-0.1542940854908025	0.6211739473737246	-0.4631265587736503	-1
0.5869411580900173	1.919967320323532	1.0166211042405102	-1
0.5133070295304732	-2.1361390929470727	-0.8643945844889753	-1
-0.8298379112729851	2.172104629430672	-0.7047628960677086	-1
0.9466464546141392	2.958249368248597	0.5459505907295912	-1
1.1080968291040887	0.27688876649795774	0.5302685164990368	1
0.9564988817588325	0.23742105340779932	0.35924283237790033	1
-1.5840884400571715	0.8269074154730249	1.8352920732300242	1
2.1623729060002734	-0.661536876442936	0.27321591653338084	1
-0.5788112706647447	-2.2133929672435873	-0.2247821909548699	-1
-0.9809054748505646	0.25170438331031986	0.004834936863544715	1
-0.9064159102314568	0.327209059678473	-0.05538625968386499	1
-1.930711994491092	0.02872054086151759	-0.2096288779211222	1
-0.5595669134163019	1.2149261115222711	-0.300335488558487	-1
-0.44831282736699707	-0.06265085987529687	-0.6565572479237155	1
0.474579159346598	-3.180227073813078	0.9873931432889074	-1
-0.08161720367862159	-1.4988420481197873	-0.2167850275289933	-1
-0.6320088253804639	2.6645227464489283	1.3114734444914846	-1
-0.8042013841897259	-0.2845026320750811	0.6289426764872679	1
0.5529452487981943	0.12080295833214788	-0.09767920670435093	1
-1.7230661985308284	0.8007955828859543	-1.0956838685441008	1
0.2763528061049043	0.7839614917722907	0.31999191108642333	-1
1.607752355151866	-0.5224869521430988	0.6923979353495231	1
1.013636883040021	-0.18164538688585874	0.6302076901297496	1
-1.143043338008327	-0.13350420870630575	-0.1685076281945893	1
0.1176049298314773	2.1998464028245293	0.8270347403317968	-1
0.7669188127895055	0.2536642560403118	0.22788779686078725	1
-0.6743788056457864	-2.6424610482449227	0.7758006357538267	-1
1.3201274219807815	0.2810811801833792	0.5662251434594874	1
0.7666493665537503	2.0889253755147807	0.879754704521408	-1
-0.05081527308188054	-1.6965674628076635	0.2721076676789901	-1
0.20031757414632034	-0.9238385705916816	0.2914177004707199	-1
0.3761793269353502	-1.5121056109195727	0.01906145855427174	-1
-0.20764908230545145	2.0778511901915158	0.3374432251269871	-1
-0.6721023680179222	1.6898926116012727	-0.5369570052517303	-1
0.39297154791083777	-1.3353171920189981	0.8329855947192712	-1
-1.1281249115661234	-0.04034624829748816	-0.7374424364681397	1
-0.7192347887852666	-1.9849113868992794	0.6592296705662595	-1
1.7735278103916996	-0.8542431848791321	1.365852930792372	1
0.728311100111948	0.2570596414616808	0.7897703542229788	1
-1.082887191406066	0.10671403064839535	0.61887123658087	1
-0.9416708358738453	0.5377513795599828	-0.18621347314877956	1
1.9927179109474393	-0.6411701521355375	1.0233699063236386	1
0.6703475187009802	2.1133688255258907	0.16945979911573228	-1
0.41001090784245253	-0.9215749462974852	-0.8302294820040715	-1
0.7400950860268068	-1.8614047295292253	-0.6676925733333694	-1
1.2443919475601573	-3.655177331665043	0.0017569037180161777	-1
1.6349469594940027	0.1795910343882367	-0.21065435278371508	1
-0.22842503732686403	-1.6987546281470784	-0.2498953858643365	-1
-0.08564853700679126	-1.7072038930578721	0.9240656501820708	-1
-0.03201675300614201	-1.7094288950993577	0.4976147398686542	-1
1.0812700050361337	0.043642487670170094	0.16817493529804445	1
-0.10444739436270103	-0.9448578739072673	0.5086872988508415	-1
-2.2490439742435178	-0.3767353365059561	0.9331789107429286	1
1.384957512895601	-0.3911051119200093	-0.2808829360544842	1
1.5053650604493383	1.7970996242655242	0.55414400428376	-1
0.8885400891478159	0.4385696393240955	0.4923511355171664	1
-0.5856499867070616	-0.01904533945793055	-0.06688845474639105	1
2.030172981518173	-1.2248170686328748	0.34375904074450975	1
-1.8479021777196198	-0.722673815883873	-0.3261332585180718	1
1.2997629382778713	0.1449228883013564	0.5577772499539659	1
1.4381506595454763	0.20910417662322325	1.5167189297462482	1
-0.3701369821515928	-1.0719918367181538	0.10629985369604031	-1
2.6074160565034052	-0.5261704153156707	-0.6976806365612984	1
1.1903422570904705	0.92456725299448	0.38813899984228467	1
2.2151988831704514	0.6459639656575238	1.702579324630043	1
1.0787432396900005	0.3602275171068805	0.756693014899426	1
-2.15871884301498	0.06791953152063235	-0.37754648040428274	1
-0.550040164491508	1.6248959772044222	0.18005858804605582	-1
1.281518399848069	0.5011891598955713	0.6218760902217344	1
0.8242524016758064	0.1820692220975385	0.00543020854957858	1
1.1128992388011443	0.5449718208041466	1.0870750330367325	1
0.25541982461375295	-1.4339940932571205	0.3953924719203391	-1
-2.039083769380601	-0.5797440080215506	-0.037780269570627474	1
-1.6375132036906035	-0.3610507669056209	-0.8689182226370795	1
2.528198253187317	-1.6002222835615676	-0.234206343561975	1
-1.5093539352574308	-0.7218245759199463	0.5870531544874247	1
-1.1398474083508694	0.2981227446318989	-0.3894268989139813	1
-1.3759727638331274	-0.6530449953240247	0.20428633301623292	1
-0.3643962783713882	-1.647136516758666	-1.2842879804272254	-1
-0.016158206323027932	1.8413870262785057	0.3700566824921647	-1
-2.538360143473181	-0.9502255141901227	0.1004455320291679	1
1.555865880441533	0.35592842517108664	-0.09960174603477434	1
0.6233569018210493	1.906630234650498	-0.21811005643882198	-1
0.1213149533419329	0.4896423429049475	-0.3043319967913917	-1
-0.1466533892092809	-1.5248012048319324	-0.49697471171170016	-1
1.4152190719724942	-0.02309987768356283	-0.297211664029002	1
0.020828391679464167	1.5347839424361258	-1.209823821936165	-1
0.9525650001053909	0.2750467138086212	0.7335887994794184	1
-0.3093068902759176	-1.3455388673683424	0.5430616175440134	-1
-2.5985331073147924	-1.0550197544191473	-0.022771294319755987	1
1.5378430842618953	0.033510218619242374	0.41000382993529005	1
0.11277741046687406	-1.0466592678011049	-0.4550126725693278	-1
0.5247655952202812	1.7310319933302174	-0.3257021021169897	-1
-0.27969830833390474	1.6924166857246385	0.18224231687385262	-1
-2.1240891094647845	-0.9654690590804906	-0.7889913225631959	1
0.4069314580095576	1.5697494207241718	0.2135670627994896	-1
0.03373484636665611	-0.9383381547810967	0.4638156211906806	-1
-1.240437952463044	0.07195391944887346	1.2425939009254114	1
0.9934734405054577	0.17241672902527944	0.2057650924355957	1
-0.19609411870608395	-1.6783498052381056	-0.19517296711073367	-1
-0.2692239722216475	-0.9254625180294402	-0.8541848500187946	-1
1.6603013560271909	-2.3166514454341995	-2.226534629606185	-1
-0.5401092104385185	2.6772677350957865	2.260472394739911	-1
-0.2066126720204985	0.5626179014115619	-0.8307698189655153	-1
1.3411090133194143	-0.27826880068871357	-0.9978057508996444	1
1.9548616145209459	-0.1761616708597606	1.7667043961593594	1
0.3831702791531194	1.1355536645304034	0.13865996380783252	-1
0.29171225650880406	1.568010107764006	-0.4993798819221801	-1
0.41651030996228555	-0.49790191716828663	-0.6334056122330556	-1
0.07663386260925151	1.204397672582457	0.22304294119558143	-1
1.3180941924753513	0.35408880837821577	-1.1549410099647013	1
-0.018074264136435626	1.1099327073990615	0.325217843144523	-1
2.0425035060046683	0.5391272943907739	-0.5933503733237273	1
-0.4188024704924984	-1.9699816066647364	-0.17163951297879143	-1
-1.3482538468195848	-0.513331755162399	-1.0302666898349158	1
0.36911029813172325	0.959245826967561	0.08884624866004999	-1
1.1246838984993803	-0.5934486010794591	-1.0911174187723522	1
-1.6122596408605596	-0.27601053147989235	-0.25093413461415737	1
0.17499507061322953	-0.833619521682176	-0.06632424194338202	-1
-0.4119479594798121	1.4467463485718302	-1.5166713309821178	-1
2.0871139146327113	0.29130469277972304	-0.22875685133066473	1
1.983113506513669	-0.5775144335124989	-1.2790435288673967	1
-0.1439400804235125	1.1456779903397851	-0.41305726914105667	-1
0.4552447644252689	0.961703474802008	-0.19688341851142158	-1
0.23053258090489062	1.133764907266841	0.21565645099442513	-1
0.25133067282171534	1.3183348298375037	-0.30364396908118807	-1
-1.284700308169728	0.027744495650208634	-0.35558444888266794	1
0.4787936706324894	0.2057487399447975	-0.01162027412639305	1
1.055166383462698	2.3591841319339495	0.02627892626129378	-1
0.4527475058845252	1.9921203352543815	1.4693966178510325	-1
0.5423631943522089	-2.3262220282925274	0.777677756448906	-1
-2.944158102250498	0.6303189074899846	0.1306313540951894	1
0.18415096019488955	-1.8834420961300529	0.7822789266535668	-1
0.6317674864641197	1.3449048506487735	0.7117220520630634	-1
0.316701521177263	1.0914069859003808	1.1066583823567413	-1
-0.9911393611532267	-0.5221358567646832	0.17649853173491953	1
-2.388287803915774	-0.5335398726044671	1.5336237346643053	1
-0.0887268283353218	1.113505436498213	-0.7792764734744342	-1
-0.2669006969965104	-0.934551217097008	-1.4679283817341773	-1
-1.5369551142044273	-0.48345202683936983	0.2376002853168097	1
1.814696294271408	-0.5937870350305674	0.14784749531976157	1
-0.2920717812093124	-2.4076578596437175	-0.21487538155031022	-1
1.028569579288137	-0.2756772644084976	0.1499693752666731	1
0.02649662659103902	-1.6341762262756767	0.25689388324524115	-1
0.34482233216685254	1.0070942863287264	0.4820659138864899	-1
-0.717605981667212	0.052237752159769515	0.11875304026847205	1
1.0895886356878726	0.04997755869282603	1.7742744472865914	1
-2.064789648263352	-0.7886288734234517	1.568288835340542	1
0.15090362194496715	0.9836634423101694	0.8168140468483843	-1
-0.4774693051402118	-1.4161605278100198	0.4034727090042952	-1
-1.307614359640898	0.024374027768120643	0.595501725504579	1
-0.040129835710068056	1.0805631061863687	0.05007080801108094	-1
-0.15097063777099728	-1.5132707563509529	1.9133615348545971	-1
-1.8526403664439812	-0.06600480567437109	-0.09005602507235118	1
-2.6969457546230076	-0.8302924984091797	1.259048996592455	1
-0.193405443794633	-1.3948695590887603	0.7019014499699876	-1
0.23777065832520186	-0.8109962376819977	-0.21895393896117557	-1
-0.015514792684550836	1.4266391843724435	-0.05033562740994073	-1
-0.535234362154487	1.0736234329595797	-0.8937374921203112	-1
-0.21403008726825534	1.837415161099626	-0.3011948843721959	-1
-0.09448116007276566	0.5212265719899379	0.4572406251462551	-1
-1.3199774513060363	-0.8210343186327332	0.10713169013188169	1
0.39391089477405294	-0.20372623533515866	0.751293532254893	1
0.7701058100652258	0.21905379348149515	0.462888352075119	1
-1.0429392580430141	1.9498091018971322	-0.8077964575264389	-1
-0.7016093273561288	-2.122051423258579	-0.16651785117829712	-1
1.5851944635339221	-0.23415819894474743	1.4818582280996841	1
-0.2551778717370723	-1.5766852595418572	-1.0001499345320854	-1
2.018451410735489	0.48853258188340065	-1.772546704610533	1
0.20308318292234218	-1.6661624443753038	-0.41540324001813456	-1
-0.9901608769951942	0.6489886409473652	-0.08824496845096937	1
-0.029409441943969855	-2.8546098964564077	-0.03183777126531022	-1
0.9955950495480694	-0.13336508071607014	0.8088643093139091	1
-0.10706682578011761	0.691249585392765	-0.13803711661977563	-1
-1.5579423852991252	-0.0013877071660945042	0.15649955390816395	1
1.0715187998975617	1.5906382452174512	-0.2027596030024952	-1
1.9311556603479563	0.03865237248145417	0.15419025454681756	1
-1.212414177978107	-0.5513828864115242	0.7491950550336872	1
0.24462785699235085	1.0211537911261925	0.5616505995058445	-1
-1.2564079041497385	-0.2828573528653163	-0.38981769661152477	1
2.6440616159073	-1.6438072259891083	0.8929260261081919	1
-1.5998321706776375	-0.13778663926747198	-0.4758224068606161	1
1.0694015135421848	0.18588165951822266	0.2163326624587053	1
0.09503000640766258	-2.524096796616483	-0.4358842529163505	-1
-1.3253536652385784	-0.3424144700172805	-0.8137237969085875	1
1.3890406685981216	0.8563300774823908	-1.934750663715428	1
2.1675632294116234	0.5163506883537636	-0.14897444489714312	1
0.27350821458836827	-2.6771676658167505	0.12110968299787656	-1
0.10913902207900501	0.8542138999654566	-0.7999110454195972	-1
-0.21183545480485194	1.7552394325756389	-0.6453891719670863	-1
-0.20812374551139326	-2.3011655569703473	-0.30280241054864054	-1
1.0465042265652182	0.1540099919389159	-0.24305286779335328	1
0.2622757856318881	1.402999244287015	-0.49582937195737053	-1
-1.09198427122217	0.09263941339333179	0.07615141943744753	1
-2.134533508167377	0.9881867897876098	0.4141488538318463	1
-0.1163946707633004	-1.9704491331698466	1.7940599148567735	-1
-0.13868240578865493	-0.9992564321726013	1.7129532986839289	-1
-1.446578987151326	0.5642434607599033	-0.23062095093280147	1
0.5340426107566982	3.1934903656022016	-0.9420148500367269	-1
-0.5410846150049441	-1.6350560341643796	1.5447755398983132	-1
-0.6076508044520001	2.2408014859934373	1.9287924650476898	-1
0.14913734193598527	-1.1984588778490546	0.5341473608291472	-1
-1.5863322360701795	-1.0629642966575634	-0.30759196832001195	1
-1.4465030018571021	-0.65911478238267	-0.39461073720156603	1
1.1333116287000762	0.06599987412929284	0.6755817034649235	1
-0.13096094145653359	1.65096050606197	0.03725048743562137	-1
-1.2683628624130638	-0.2156798132076913	-0.591486713684521	1
1.0726819410908868	0.04117734261918274	0.390010461458949	1
-2.0438962248126065	-0.7574051344378049	-0.08192188262441777	1
-1.7603201820569057	0.061259774058391114	-1.9697792242149164	1
-0.9383318898121359	0.0640595283678659	-1.2144774082307808	1
-0.9732200782430256	0.35293075640106564	-0.5213820835500164	1
-0.09590355941072753	-1.1382324733025664	0.21062499945281082	-1
-2.4315208692655776	-0.10418222295048452	1.3740121131688614	1
-0.3980596935295786	-1.100199311631308	1.0128184532405964	-1
-0.36725589899264316	1.491805902735097	0.027351598958027374	-1
0.3972054490297925	-1.3023222140937585	-0.013287431508921047	-1
0.22074443220048134	-0.7488987941272127	-0.039322405198594715	-1
1.7384822614057767	-0.06750603566213499	0.3384984309325455	1
0.16097697867551897	-3.992302179093201	0.673166700372801	-1
-1.2224180277460133	0.0035834067110761146	0.18568544969732403	1
-0.6933479702879822	-1.598239237808901	-0.2904587617415576	-1
-0.30353381796126183	-1.5883589124635997	1.3799499707635667	-1
0.37304081348896717	-1.8135439919636682	-0.5896611967435584	-1
1.2649202281356617	2.105866874930186	-0.3514498361810002	-1
0.0179255437109047	1.0426019735580974	1.248515047015355	-1
-2.5040083384349727	0.008462601245201803	0.6244306488731166	1
-1.76575667497438	-0.04843473120482664	-0.7920671456341514	1
-1.488278900391896	0.4243301682163352	-0.8256515650232067	1
0.5399539672607254	1.6982802090197304	0.3659876940009488	-1
-1.302719688536691	0.29205676574663564	0.03883085123943783	1
-2.7383532309833747	-0.42290886592412724	1.1877729906933165	1
-3.295214452734509	-0.28986846270650884	-0.11417123599737586	1
-0.3500960966989476	-1.2394706001167022	0.39986393197101533	-1
-0.4864871068629191	-0.1517802161132363	-0.07875203971857038	1
-1.5199310189941166	0.39562106817456955	0.43844342760014976	1
0.8848307745065047	-1.4255092885843332	-0.33572785519803006	-1
-0.10472146890600795	-0.6978081249479442	-0.07239963561863107	-1
-1.7917786108142333	0.13801162434779254	-0.5255834631476866	1
1.1757700019380022	-0.11599962413450851	-0.8200453109154077	1
0.8726279078129187	-1.8459898893991333	-0.685098779054597	-1
-0.23404391064257016	-2.0792239340547507	-0.46425118340819904	-1
1.0289160154835653	1.3695655393506545	0.1114633143641788	-1
0.07971389476984558	-0.4640940879556748	0.5987777286868452	-1
-0.8928071290766765	-0.3545224604524087	-0.8645056240313533	1
-0.29696526997248657	-2.0680760095138537	0.7678927709774138	-1
-1.3121090442128498	-0.2335906996701346	-0.520594847668702	1
-0.18210643202709278	-0.5109208051647173	0.06941236457488614	-1
-0.23081744896266468	1.5642518081458547	0.945070580261867	-1
0.42053602010408403	1.9193239889411546	-1.9611657095173656	-1
2.182060833495517	0.41382450684646854	1.4480363383872925	1
-0.40594223386311856	1.0679176052826458	0.15391452338481537	-1
-0.3176579262953678	1.2944790011109863	-1.0554482385016517	-1
-0.1836771367993244	1.6480381161138595	-0.599990241625915	-1
-1.3640914288870436	-0.3748660015507316	0.14708460721153252	1
-0.7969269538291766	1.4477679958125735	0.34601784263098173	-1
0.22551284336105104	-2.487188120302344	0.949128561377073	-1
-0.012006514369385792	1.14358950899249	-0.9438896714817555	-1
0.12769818403258687	-1.3554257696993464	0.28533789932816145	-1
0.316865993050924	-1.414711592285037	-0.073686371189749	-1
-0.3146671791580873	2.2398854892131235	-0.48717848723523083	-1
2.1996718415266145	0.846029331505311	-0.36175944999660287	1
0.5465072981040451	-1.6857943252239695	0.27049066769270746	-1
1.3856400743348942	-0.6145737425752449	0.29848604391211603	1
0.6697034399284238	0.005946360168191886	0.332844858606303	1
-0.29672346563371266	1.7482654481443174	-0.6977856431089566	-1
2.0049606434789577	-0.6995390071454695	0.20064268206319608	1
1.364636590581263	0.31843508569994994	0.7949382679502659	1
-3.1209617047059823	0.9125686048243948	-0.7544358003722784	1
-0.04452128035044479	-1.3421657532240554	0.1647706266008341	-1
0.8557166383324459	-0.4376257543594677	0.02321965618710045	1
0.6169394931598816	-2.062517233365694	-0.15106283193532535	-1
-1.166050449349966	-0.4587477724862521	0.11590317905548804	1
-0.6641123825745672	1.2239035278126282	-0.3121509836871702	-1
-1.9381547413705962	0.7728556758111065	-1.6394218259665678	1
-1.7458690462932291	-0.22754156587706825	-0.029121408394539448	1
-1.7055024752701535	-0.435645223944277	-1.0202136481568065	1
-2.6618202499663086	0.23200820065797792	0.2617201283113358	1
4.559256524690662	0.7680783920362485	-0.6082507046080481	1
-0.18730573831796718	-2.129027060929408	-0.007344356179497422	-1
1.2134707936023328	-0.09755519110989694	0.6108284298405396	1
0.44522507559204666	1.3598124905777935	0.0027330455070166113	-1
1.0616681282704208	-0.3522641858350615	0.2660818808802101	1
1.7183021773670906	-0.05511757423007091	0.22944963947955688	1
2.9455419375600873	1.1988112953430945	0.14669717039853658	1
-0.17990391824825916	0.9725343745040587	-0.22999015841444542	-1
-2.504862374468722	1.3929275065949531	0.9754179488954391	1
-2.494966091028886	-0.005855676714238981	-0.9748216081126239	1
0.4851903416505126	1.1555355253597277	1.447014210212509	-1
1.4183958607055591	1.1464951299431667	-0.25635365725684117	1
-0.9069466285936423	-1.8277963154810897	-0.36409356508326296	-1
-0.25047908282632325	1.0382202186205305	-0.01719270648321208	-1
0.19682488095786546	-0.8402515710725444	0.05245694678297165	-1
-1.4167931073374325	3.2219497669941157	0.24400286287690312	-1
1.043806925294037	-0.1577298598571752	-0.23336722403595625	1
0.6550437297832109	-4.2625256682810715	-1.0891443496526505	-1
-0.07828639717073853	-1.3669562783873757	0.08285313164501013	-1
-1.816672347188156	0.02526904821134219	0.9804037646587216	1
0.7086289462779323	-0.4606151168384742	-0.15950758056902758	1
-1.556105238387871	-0.5272091621143281	-1.6240857768073194	1
-2.2470212062805217	-0.19625688235615682	0.5359218146138687	1
-1.1887795120475322	0.416088042506301	-0.9074939672921395	1
0.22692792378363338	2.0229231532365977	-1.1838739338103932	-1
0.25647835393099894	-1.027244517180303	0.28674747145137913	-1
-0.026780224172907617	0.9611522498589228	-0.31530360115864847	-1
1.5138636613951753	0.06554612290368537	-0.6936628757373791	1
2.0978420266071067	-0.2934309919343192	0.37844289816092225	1
-1.4630707393450022	-0.46143071549229664	-0.22616225654307343	1
0.11898195684050485	0.5087794963871152	0.1799760632884848	-1
0.0876222383832942	-1.1796293585109052	-0.1368498322072622	-1
-1.652714917337844	0.26528402022239483	0.21225434055387854	1
-0.45532938691960134	1.4833833002511956	0.4432394126970723	-1
0.5921164076866429	-1.723564950395244	0.4482182688678391	-1
0.24083839537090448	1.2878622035249436	0.27963764136537067	-1
0.8266610383581581	1.5327209500132455	-0.8946530967889156	-1
-1.7813552251074267	-0.36942155609858635	-0.5160181713674885	1
-0.10497273423238668	1.2219130250533419	0.7881508574100462	-1
-0.13064258110048524	-1.931770588956676	1.8340117169363277	-1
-1.4369661611620421	0.41955488045516787	0.040260222874241525	1
0.27181934223843496	1.2826833346225701	0.30882837330483554	-1
-0.5522877740930163	-2.098777664093496	-1.691647984087805	-1
0.8136911385972261	-1.6212479360067027	-0.5837728109942565	-1
1.0153628238181904	0.247223141506168	-0.9288074310951373	1
-2.2595871051026015	-0.2443465114412027	1.1903485372891023	1
-0.3750880478551686	-2.4913146046236085	0.7301226633161689	-1
2.705706171808162	-1.0699672547479335	0.5782005304320231	1
1.7548388418215444	-0.1322847822419797	-0.39183813481603214	1
-1.1521737820337097	0.34637001468784445	-0.10969809302209071	1
-2.1562528875993783	-0.3868634362437809	0.8050912263099637	1
-0.8821701680920265	-0.37095666060944654	0.30442844400935887	1
0.5839842875063718	0.22815624664831227	0.7075805963212436	1
-1.5559814311665519	0.3903907506489786	-0.7015131303636846	1
-1.797303027483019	0.290742685992165	-0.1614162360281734	1
1.6476614930405389	0.2978246316629642	0.9815175375964689	1
0.3526619363320152	0.9950671483579487	-0.4620260312567266	-1
0.10846060665136908	1.6097305846135062	0.33294791918571587	-1
1.894093551126761	1.1561873844856922	-0.4519218031159813	1
0.5149625360856158	0.3600341935873447	-0.19287065481086646	1
0.5429651021611706	-2.1632107435212276	0.6129669408711835	-1
0.7490055008582074	-2.1780662272302886	0.2351030747286961	-1
0.27847289507676815	0.08991531710907205	-0.6534883169154617	1
1.1287513860743073	0.06493003359273306	0.049868408906549935	1
-0.3010155806900176	0.738122123626897	-0.026132310371102807	-1
-0.11310393542474287	0.9928337376400955	0.29503443716905686	-1
-1.390321547111451	-0.8542957200987038	1.531408922342481	1
1.284711667297641	0.541420093942381	-0.4795680299189591	1
1.660579497648259	0.903781679116167	2.082967607611012	1
0.09936128313052406	1.1118217828281698	0.8465665555073998	-1
0.01035631663894374	-1.522461193437363	-1.678543237141584	-1
1.0724148404764953	1.8630935348970201	-1.271041530692584	-1
-0.9219914246394936	0.2889140670851308	0.2794540448996795	1
0.20464146406652955	1.5396392305664632	0.13145844814691185	-1
0.9930821617098139	0.7434553365183099	0.9907930055565892	1
-0.8991788316132581	-1.4899695560584578	0.9491607011642642	-1
1.2434378048774577	0.555878480146323	0.6518911621877458	1
-1.4097671526039561	0.7344089990441774	-0.21790936285756118	1
-0.055164355742258704	1.4403527736591242	-0.11617079685739569	-1
-1.6171144234476773	-0.17089101969101686	0.5806878239339446	1
1.078839272482757	0.3646765726573369	0.4481973523380025	1
-0.31290925044129975	0.915860602801166	-0.7694349943398582	-1
-0.016697017157615155	2.015660375151742	0.5097806349178857	-1
-1.393139658878725	0.0850800058344103	-0.6367534334537015	1
-0.3479750173469843	-1.205764118790138	-2.0339943862978145	-1
-0.2558098850148167	-1.0238984998103187	-0.10260684350714556	-1
0.09034913541840897	1.6043293088852506	0.07953846598046649	-1
-0.26541347560376816	1.094255833867115	-0.18821435891323304	-1
0.503366349488565	1.7608618904063749	0.15726938498173232	-1
-0.025131737525635623	2.8901817256887914	-0.2917875000263975	-1
-1.46068242804408	0.7804291729134014	0.30695310963896766	1
0.5054340778817087	-1.3012153914945228	0.7868984851996326	-1
2.710640508944489	-1.847194245846681	0.9719338759311962	1
-0.3684059231100886	-2.9279447563915255	0.3744343507842618	-1
-0.11902832999374659	1.446862759609034	0.12739075804783645	-1
0.5184430304211839	2.4242448575100815	0.009930032992904634	-1
-1.2023785828456437	0.4864117794078423	0.1289436409173607	1
-0.7777563826428799	-0.16644940252011378	0.30102098817503103	1
-0.017064019232331223	-1.6935349940439448	0.4003670016872434	-1
-2.726191142056039	-0.8556790046588258	-0.06533920448951785	1
-0.8894938350689201	0.12480517860196041	-0.6125587111538293	1
-1.2100910890874885	-0.11691732484560886	0.1107349234552148	1
0.577346504805222	-1.39994646368452	-0.6018914533476015	-1
-0.4121115266423705	-1.9792639100384402	-0.00907514340275117	-1
-0.6359832168400176	1.7440465451034524	-0.7248274527361409	-1
1.3417188891065355	0.3062037559270495	-0.30563463020267423	1
-1.1921259979646917	0.38117192575538855	0.8667354876984992	1
-0.17181145514836185	-1.3666633900972696	0.15109715046654332	-1
2.212181717301231	-0.22309223322724325	-1.1383782002754907	1
-2.3485678078266305	0.5083100136013297	-0.1549707992583867	1
1.2501041182531218	0.09858439690947926	-0.2586404521897392	1
-2.4030870758507787	0.19219497002849908	0.5030405630985854	1
0.2905389083080157	2.233210296658158	0.936563379836938	-1
0.7467939750953253	-0.1591281063534421	-0.08323442926114147	1
0.1346070434556872	-2.593587081490271	-0.9241490264173644	-1
0.7433128356153191	-0.1329059135994039	-0.4351924463235147	1
1.0318168076967302	0.22380959109719037	-0.023339655298234067	1
2.2106244153395687	0.29749994264223534	0.8610094348051055	1
2.6725052427388842	-0.02589067956139249	1.0896666646812334	1
0.9616632635810904	0.19720319938662634	-0.05004416386394549	1
0.9317141604606133	-0.1779655692534874	-0.11863689887461505	1
3.0407429960998	-1.292041772358393	0.594647886979701	1
0.8660271160621846	-0.17387323440195152	-1.0957915709351551	1
-0.018160953672890195	1.3725976480706248	0.1099676092069899	-1
-1.2339872352849903	0.33630045056536717	4.625284416990577e-05	1
-0.0009700682858940262	1.728853739598354	1.3415967682128294	-1
-1.5881824115138292	2.9572248203347176	1.054024038521631	-1
1.6649936931428375	-0.5255142204016374	0.5496775953552151	1
-1.5155660162044131	0.5393350347831473	0.5899354113937287	1
1.4134395200348424	-0.053143510192734125	-0.5082019523061299	1
1.5286713462399253	-0.3197281492714713	-0.5594789470175261	1
0.7761561997489836	-0.3196502633182864	0.3848989516099324	1
0.35439762029315236	-0.6760733985428504	0.005149965933472531	-1
0.2542848930482031	0.4210284691245053	-0.11233225974777064	-1
0.04218805779902805	-1.1536938581873077	-0.3878626301040712	-1
-1.095312704570146	-0.16651086650106628	0.7622334633212283	1
-2.689802128874561	0.09521286243235214	1.8093289949791038	1
0.17089973161319363	-2.1897419733448498	0.00465257536737009	-1
-1.8466621632277396	0.41540236532042624	1.1298286729188274	1
-0.2939449160632241	1.876578796004866	-1.3926115764431541	-1
1.5739476463421715	0.21810391702612297	0.3939841520251553	1
-0.41287816666503907	-0.08952537439051725	0.33947207141104624	1
1.4475708179258089	0.25697438968652886	-0.19141703407685162	1
1.6841047069757673	-0.19464931557305212	-0.6813261965933721	1
-0.42729736091561676	-1.5856580889261709	-0.45824886075158655	-1
-0.03442523474505025	-0.535566235595541	-0.22598903997341674	-1
-0.4106666537803578	-1.1443503247188158	0.9100375232385953	-1
-0.8789760257973056	-0.3531518054008026	1.0835810729948183	1
-1.1435249591841645	-0.35672883107700926	-1.8283771542555896	1
0.5177336790598457	-2.058916010373318	-0.3501602069494749	-1
-1.2230447589265283	0.5180650226136125	-0.6970610411973933	1
0.40342279318065355	-1.1447505644206883	0.8869819270576003	-1
0.7492206516386932	2.2161240229219734	-0.35332971874969576	-1
0.585647763798529	-0.0380747989808803	-0.3214241340553556	1
1.5899165465389964	-0.6922338536265837	-1.2215335029975174	1
0.015364577735650791	0.4092518429674591	-0.25749138695592577	-1
-0.008283395489057576	0.8155562344178775	-0.8119109955491053	-1
-0.15520961198792077	1.1844052128249443	-1.101995983454142	-1
1.269859884269882	0.07805174233044229	0.4386180607355371	1
-0.5921662210366405	1.055539352160789	-0.7688848016988219	-1
1.4448171285023923	-0.06596873266686773	-0.37325854440463285	1
0.3956855686924887	-2.041700508497975	0.6387509523281945	-1
0.2967248168122724	-2.03952990452344	-0.45092192222242466	-1
-1.850426409827453	0.05504612615419391	-1.5347941265839442	1
-3.0388691685203857	0.48779324019703024	-0.1763436866350674	1
-0.9855589226913098	0.06857859775382463	0.6594070283479337	1
-0.01372316474962565	-1.1133798467143379	0.4387489071560107	-1
0.9339264121057853	-0.4738239069429278	0.1759950104006032	1
0.07020059812181861	-1.5404870913952842	0.11333499026178556	-1
-0.4160580701944164	1.659091854817731	-0.5981778980946335	-1
-1.2877784714234441	-0.017630222117974954	-1.0227801433466175	1
-0.8137959488405944	0.5385554202795177	-0.920032438342645	1
1.0171853907392143	0.020014948007705705	-0.4194716731391446	1
1.5801577226170613	-0.540128602740308	-0.7270456870582069	1
1.9910504504998143	0.7167570957405676	0.1977972979128452	1
-0.0407294808672842	1.4355309391009135	-0.32135152520863325	-1
0.9930813259551441	-0.43396692287933236	1.2235648250864117	1
0.00414883078267443	1.746522802654686	-0.09532012736218196	-1
-0.08679311282214293	-0.946435034159742	0.6333080911290535	-1
1.773257339023867	0.7054108538541889	0.23747047704634386	1
0.5029842800633424	-1.949926442405291	-0.4826811100760997	-1
-1.3928168376513326	-0.1488691294991928	-0.05892383744388685	1
1.2832180388804657	0.7188118553967275	0.2830072372841419	1
-0.13250917129462395	-3.115636081295584	0.19192213663254526	-1
-0.22521903208267027	1.2378384068633292	0.06248664312944442	-1
