-0.4262995493330052	0.6031359804269554	-0.16303175683356308	-1
1.8893074011238395	-2.326620633593485	0.21417269149071155	-1
-0.8020769492361377	1.000819115710235	0.06820270781215587	-1
0.7662814123972721	0.32278074467585977	-0.12684731901545548	1
-0.5924548032557092	1.6399531023569134	0.15907085385656025	-1
-0.40667727754786387	0.7090011795900211	0.38061717339959183	-1
-1.696140279647798	0.5692280156038336	-0.15429914979295328	-1
1.495862167747128	-1.1015026031993314	-1.1752359633346863	-1
1.3755295285994507	0.8173375041431552	1.58924369628826	1
-1.670102972667138	-1.0554538725100622	1.7024745483285877	1
1.0239579768582148	-0.6364374428492809	0.15786656012592654	-1
0.7311078440111081	-1.0500677618763667	-0.047348597123165255	-1
1.3522531988993332	-1.2228683900617718	0.15746103718489787	-1
-0.5757434313787637	-0.6814244416258557	-0.37188301174476446	1
0.5115674168528513	0.5811768917034812	0.2453035202097809	1
2.1040177254134456	-1.8223015779905785	0.25620720691615473	-1
0.5674373725628339	-0.8631457459832217	-0.5707736339486456	-1
0.4354785063993237	-1.0513350849200407	0.6399910814134923	-1
0.7940370178239655	-0.6133725436235106	-0.20361181828939556	-1
-1.0283811142604804	-0.3385515661875123	0.30439115517356186	1
2.050242940737363	0.8651793740574845	1.2025969344877618	1
-0.871573077657645	-0.8087301819538275	-0.25879813537905705	1
1.1716245750299494	1.2226612449338485	0.37885050477074184	1
1.1506113068944013	0.5572670203658164	0.5388532983221633	1
0.35350305865173387	-0.9467110232737712	-0.4930545247064274	-1
1.2466921685477872	-1.5370480662108454	0.18623848830816653	-1
1.271675575876833	-1.1194233227201882	-1.9131019294711473	-1
1.7115383951887169	0.35266985383326827	-0.38688140313704344	1
1.1670037004807403	-0.4596145604578251	0.0007604707619133074	-1
-1.4215959137697347	1.6241831474689654	-0.6804123454284713	-1
2.3963742141012743	0.92797265414915	0.1725704530266734	1
-1.127526875171733	0.401831949731081	-0.2121052044206824	-1
-0.5423339692201545	-0.9691296239089346	0.31673096055598954	1
-1.6843167110220425	0.30790748171041254	-0.8629853601045596	-1
-0.6733636264981524	0.6894679231451821	0.7508193254016344	-1
-0.529314946315469	1.0679159995437697	0.054792113400936905	-1
1.3797123936557487	-0.8481778191064736	-0.21109992676544742	-1
0.8541809680585449	-0.956552371487249	0.3112677596211548	-1
1.034029168612919	1.5196226565751618	1.0344368754976703	1
-0.36314903636514473	-0.7126893981910599	-0.1553577172249313	1
-1.1696693578862893	-0.5056475200725982	0.6861667757112286	1
-0.19584449311011548	0.3398540553806455	0.031015542423288134	-1
-0.6605511632988258	-1.0991560785289283	-0.007253298957884374	1
-0.8935724936753272	1.4102883588782205	0.25933541677590677	-1
0.8214769153856714	-0.9642798905215539	-0.7755274251847847	-1
-0.925266751520996	0.8141706120561685	-0.33125519500371425	-1
-1.2404208418830454	-0.9639682977236799	0.3378769758031188	1
0.9682832159274534	1.5410170401181271	0.0002847818364837657	1
1.4821118216462916	-1.540721395624845	1.283643124473337	-1
1.5143074663272211	1.2569138996710216	-1.32460992314814	1
1.2562809123020307	-1.1470109506715647	-0.22183501434031985	-1
2.196152389477084	-0.4018231485790176	-1.4714690222268785	-1
-0.7216375176157976	-0.47898710224826546	-0.29205641434257545	1
1.6765670010855518	-1.3716765489046099	0.13817281544298227	-1
1.1079667109139812	-0.6845874271627803	0.7437200934672628	-1
0.763115509546347	-0.5274426075395771	-0.7853284710509805	-1
-0.75935780267427	1.1112273460324225	0.19930470791088922	-1
-1.9624694350755965	-1.1296417482648127	1.5258694694557449	1
1.6282063162325033	0.7832952255341317	0.7796982852769541	1
1.035310138902218	-2.083445895872026	-0.7203673187044859	-1
1.240044831201479	1.453362378213587	-0.713766480055921	1
1.4484083862339663	0.7257886806756484	0.48380182230176194	1
-1.365933750781511	0.4715464051131907	-0.5381019711651575	-1
-0.3863086735753941	0.8782405581733863	0.3624684435238984	-1
-1.550875664157734	1.1554419146285158	-0.1643836624186627	-1
-1.3395749423776597	0.934808467096556	0.1516658586492432	-1
0.9260945434576785	-1.8374488989490587	-0.4281233810649838	-1
0.7180317022854937	-0.540906962969707	-1.1151730637756152	-1
1.1727206995928445	0.7914164868150624	0.08767450425289591	1
1.352437576575664	1.9714313983117187	-1.220085995999677	1
-1.3732801755625021	1.0738733319670157	-0.2070188232860745	-1
-2.6106392621157557	-1.7887125756993059	1.3451482947723297	1
0.636913550854496	-1.1842911179655382	-1.392667550257323	-1
1.4850462212365303	0.6598919836110342	-0.5027228036812462	1
1.0617663216981812	-0.6419118912996808	0.8268037532782389	-1
-0.909371163087632	1.482228960310978	-1.0551679508562606	-1
-0.2198244764648786	-2.1409944366359426	0.8512231261839479	1
-1.1500189709114188	-0.7855721393565767	0.9655779751750506	1
0.5705850130874238	-1.5977120082069334	-0.7326531384436554	-1
-1.2151541705746416	1.5131304739363225	-0.24822395643393194	-1
-0.6683986449070289	-0.7355220539666738	0.43054958508845986	1
-0.7532135930590407	-0.7308272484292822	0.8241598957162715	1
-0.17682930107700093	1.3386688559575366	0.5969099694277389	-1
0.5500303698201205	-0.8066233236417114	0.0971734770131924	-1
-0.6548383413741135	-1.1911311028607359	1.6443869018348938	1
-0.9206577823427794	1.4804844862590179	0.10605077065632598	-1
0.931332805364119	-0.6386631189434782	0.20131484489644674	-1
-0.5279709623297992	-0.04220935805584675	-0.28912722841270294	1
-0.7342933162100711	-0.3233736980837807	1.1222568925361034	1
1.8638370234446529	1.3338457735106153	-0.2860974049489676	1
-0.8102720439792408	0.9119776868418428	0.051043980278678854	-1
-1.100502189520944	0.4644823233921308	1.2035876775526289	-1
0.9384163010533643	0.6689921437883388	-0.651366849776575	1
2.174136582181789	-2.2931161476801205	-0.5736838827540435	-1
1.2265513689066772	0.44696284228016375	-0.7049759088476631	1
-0.5859252499003829	1.1235205612560675	-0.6681725685295201	-1
1.7795722189379335	-1.3758902124566676	-0.4826217505539283	-1
0.9162205212457573	1.0359029654908927	0.33257182446015715	1
-0.14744274409367714	1.0555384557236858	0.33170197007367286	-1
1.0946660239183812	0.8235609726922544	1.2063458771186049	1
-0.773887881409923	0.9866260731286232	0.06787664366522159	-1
0.24299116269909626	-0.6873028818427509	-0.7521031025202173	-1
-1.8474825496927771	-2.3187684420705432	0.949232916575041	1
-0.2837638831417495	0.5497521285058377	-0.051968114809622115	-1
-0.8525676221853049	1.051766772104708	-0.03596621290398501	-1
-1.608168223912724	-0.898892106744632	1.1268100317880128	1
0.8820154346983995	1.8870151466699838	0.3100367080062009	1
-1.1580162574965192	1.2051694577426553	-0.5388194319588737	-1
-1.8777984024136842	1.874481404522887	0.4749962217814786	-1
-1.6694984186617214	0.8047597226436902	-0.054680073734707346	-1
0.8451770809537178	0.6951935259523748	0.7600391382146006	1
0.5002116899834153	2.566126003436633	0.6855161055759029	1
-1.4928325294010263	0.9968076152753906	-1.7307386706785783	-1
-1.9122642453604215	-1.1405534763113159	1.450602521456383	1
-1.6220932030154693	1.155678318965558	-0.5942538884494882	-1
-0.47427189328568536	-0.5288184038485426	0.4325517832064629	1
-0.4906493058027287	-0.5454384465186175	-0.6345067772596917	1
0.780438849137323	-1.0165332808089005	-1.1256893161136343	-1
-1.5740583393235639	0.8012168186928502	1.4292693272013821	-1
-0.48381564824692624	1.1498920290511763	-0.11828924391726439	-1
2.7059115351600784	0.7966181238397445	0.9786303531692548	1
0.7761833571378078	0.5828829327924343	-0.577177559290623	1
1.5490742186413762	0.947648723282934	1.3497602107994153	1
-0.5742851877037559	-0.49648648421078506	0.16942712127874027	1
1.0528638470852378	1.093642815906956	0.23430068860565126	1
-0.8368928946820505	0.5857310401529302	-0.0005509022407426345	-1
0.798103593744397	0.990121803498716	-0.04557788865540706	1
-0.22941237761236966	-1.5962205967635559	0.40348614246910475	1
0.9596667786177504	0.9785167299107056	-0.15525362646646562	1
1.4671970220398078	0.5489483391539234	0.992622698348107	1
-1.2575264837694877	-0.629683143841206	0.5327313174191464	1
-0.992070012720019	-1.3194730230191203	-0.5206750099340384	1
0.5601272037960339	-1.6220380966454224	-0.41516988417137185	-1
-1.0050367881108202	-2.2543756477240544	0.5662901785191812	1
1.4229772408485175	1.8523471138250627	0.21343085119521826	1
-0.670029251512086	1.8218162779452145	-0.13345917120108813	-1
-0.83661932484942	0.4399290611457987	-1.3461406241596354	-1
1.683715902862095	0.1432596129217652	0.5035625253555855	1
0.9218068321583368	-0.535034802929828	0.6005188927051435	-1
-0.9873262467756851	0.9475905692573813	0.22512805315974185	-1
0.9188461519533448	-1.8167552832838982	-0.1139662327327854	-1
-1.6120954072989786	-0.7240586103313933	-0.09438881614259831	1
-0.6409942648921929	-0.6957268753557436	-0.6558110936055519	1
1.3971899456315715	-1.9456477876281628	0.8225867925646809	-1
2.5027099032516706	0.8292582136697546	-0.07667522585990591	1
-1.610245214961096	1.1457074100984888	0.4659811994878321	-1
-0.9764496256432906	2.246070392989047	-0.1280252761819119	-1
-2.2321511253220487	1.4875284317222617	0.37308113379711705	-1
1.0315405627228282	0.8980303963543363	-0.40336865079579637	1
-0.5488366907633332	0.5011271776369715	0.7896002833775074	-1
-0.9096961682833863	-0.4637765539604315	-0.0007256517155386911	1
0.5059551312056478	0.405203627750604	-0.019383409069347615	1
0.809630309642118	0.7732295770185704	-0.1520434861347948	1
1.17577157474986	-0.8720312578014513	0.9725576038695192	-1
-0.47389074209171866	1.0870617576175028	0.6878962983510141	-1
-0.7325272361100696	0.4861042107392296	-0.04086817808675322	-1
-0.7962876213064978	1.0521920907626228	0.8769754361082162	-1
2.700979997822671	1.2807635485821525	0.9447113510887111	1
1.0992918983390623	-1.6266083997224996	-1.6633610096287976	-1
0.8318467426970888	-0.6702669083039001	0.5484067912094133	-1
-1.694103175788019	1.0582544655738455	0.46091758638168345	-1
-0.4217825515644458	-0.6341342108972493	0.4837338891754007	1
-1.2120363628858164	1.4916961191625542	1.2629471944912551	-1
-1.1247662176409259	-1.4275923880247714	0.3094127507795346	1
-1.2428283598130565	0.9611736387479617	-0.2942683111168424	-1
1.2001882162780986	2.711266789443971	0.10835815230678982	1
-1.863739549693657	0.7607420637857994	-1.2735699985330489	-1
1.8925636529978436	-0.6404455847214566	-0.23488120192697348	-1
-0.39354711040043033	0.5750474917252352	0.01318357854195631	-1
-0.71868580365315	-2.4698640027630976	-0.42608401518828964	1
0.7276239562624994	-1.2095629135521322	0.8607294290269	-1
-0.5384773245106591	-1.9806024387725456	0.602212305070994	1
1.7472745124830955	1.3169301702293008	0.10613562062443957	1
-0.3883110323128272	-0.5858218779011388	-0.1980953668819065	1
1.2203148632515388	-0.6520699739195113	-0.6535103539658232	-1
0.5950803484739178	-1.31329003453205	-0.4569294425432407	-1
0.5951122489258481	-0.8526687529661149	0.14976216358777347	-1
0.6425525894231943	0.2917753366709253	-0.30862151918899094	1
-0.8585087018066275	-0.7061790229330456	-1.061231278132275	1
-0.9324738452703816	0.7381488415275899	0.02634737350891778	-1
-1.4140248202378685	-0.5403362451214995	0.05973510319070952	1
0.5293435853580218	0.6283250057221216	-0.7140302263665155	1
1.2879468313180134	-1.418878710737268	-0.705492812248864	-1
-1.506410208391074	-1.85303752819857	0.46062282987405606	1
1.544366998801235	1.050245227812332	0.7555262811442514	1
1.9672979679933693	0.7308936043745368	0.7060893678563832	1
-0.6806566786828793	1.2250387008752384	-0.3432452412280374	-1
-0.2221931787631331	0.3422263605250425	0.5888986548056787	-1
0.8371089077831161	1.9993708262726493	-0.40154344716706813	1
-1.4833369448309928	0.9888686447474574	0.38354569610289224	-1
1.0535649159680243	0.4916968744212345	-1.1257443321679204	1
1.141795063838361	0.5985647799762956	0.9991797934861382	1
-1.0190071449252809	-1.2243824479688952	0.002917500434645962	1
-2.80497659826218	-1.853898134397327	0.0006322004411328172	1
1.0777036040864223	-0.4909348059009463	-0.3538145994063958	-1
1.1763724321097624	1.477920083194391	-0.5344848713993514	1
-0.13429383622839838	1.0382765464565744	0.896314646698747	-1
0.9960803742094076	1.974772720606377	-0.4533052438183879	1
-1.4390209593677916	1.7523458476724292	-0.30112559237326075	-1
1.3083310056622288	-2.1282929047799586	-0.8260208721598384	-1
1.0094987333780536	1.5322709907660095	0.9130984936137247	1
-0.49660989046541804	0.5574386196589394	-0.3794081539509432	-1
-1.4833306565098097	-1.506200781981149	0.18996368521486656	1
-1.4841916974316087	-1.1870611419492294	-0.5460398588017865	1
-0.6521132091425146	-0.268063651630851	-0.12198582946719877	1
-1.189192133857913	1.4336065793376505	-0.2925081918765071	-1
-1.3832555048498645	1.3090603520581454	1.0525560313794613	-1
-1.6368803336132223	-0.591753844098044	1.1062326741692907	1
-1.0530873431293073	0.9104840237132907	-0.1584674617534842	-1
0.8049110038452959	0.8146419316473059	0.9081748865122795	1
-1.3886171299976175	-1.5231690252379093	0.432417843500671	1
0.803872074076184	-1.4506452018250962	-0.79694141720449	-1
-1.3672155669851067	0.5440905854844138	-0.144939417625506	-1
-0.8135303439545689	0.8671420760837614	0.4523952957962137	-1
0.9616788032854355	1.380875595844768	1.5798538150255492	1
0.5254390178103698	-0.8394106558789831	-0.2096186678254071	-1
-0.5482190385078465	1.1577699169738997	-0.596716992729366	-1
-1.4461198242970907	1.5091760847392943	0.7948933857588143	-1
1.1677684409193385	-0.37291804874731704	0.24197910542440226	-1
-1.3173039081626783	-1.4015043816859674	-1.0144495095168051	1
1.047162705105896	1.2208730193168569	-0.5933292575360016	1
0.8587318767075001	0.8952120335198406	0.18034237570201742	1
0.5754374535836626	-0.9259269966977453	-1.0463970099163702	-1
-1.5549118322127715	0.8305019447707211	0.2777998590041331	-1
-1.4177652840364097	0.46737142616204475	0.34407519409508236	-1
-0.5207101721935494	-2.001789653615385	0.7110808875090613	1
-2.41792189159959	2.798455248884504	-1.205234837602836	-1
0.12198019234776826	-0.7418306847333507	-0.8673738659933804	-1
-0.8669468340954759	-1.0085895449842504	0.5783219476665219	1
1.1903610617322717	1.0316271294737704	-0.4250491752379864	1
0.9018113800691389	1.4850826186440078	0.6919097227098946	1
0.8756901383544738	0.7426796396267739	-0.3228705504600981	1
1.43876002314373	-1.9653798044872115	0.2906526757838751	-1
-0.8976293220381233	-0.5829476129355444	0.562203625932061	1
-1.6099138109672984	-0.8136257317481195	-0.04918154296903626	1
0.9644811527521809	0.7483261490420801	0.07415400980922741	1
-1.3350641391345395	-1.1317504106534073	0.31762875496340504	1
1.0125274668310946	1.818557363601336	0.17205542820297287	1
-1.3049774918658745	-1.1274453338341983	-0.35896943666389913	1
-1.3247212814756126	0.45263098477738783	-0.1855520992209046	-1
1.2938783284818163	2.155693331118324	0.7342843207959484	1
-1.5509807512858584	-0.9124250232633104	0.6440896203377642	1
0.779351901398871	-0.7569763014889053	-0.2243355225256517	-1
0.5442218334586661	-0.08934855632200257	-0.2840070004852087	-1
0.23328059125090841	-1.0653022434278805	0.11408479373457478	-1
1.5769901345600839	0.71807530356325	0.10277019306966659	1
1.5183184093126743	-0.8192309016378956	-0.1039631285156733	-1
0.6620510548588051	-1.5336465540469852	1.1420164868231606	-1
-1.2263638572651592	1.3332206773786532	-0.019776546771149425	-1
1.2395373932064278	-1.5908510372460483	0.7233841607973971	-1
-0.30611458454273	-0.7506552164643298	0.02788956647493793	1
0.4835843782152822	-0.9010229953596883	0.4143944554383854	-1
-0.97474242570854	-0.7941843106079962	-0.5266742473606068	1
-0.4846996256632522	-0.29616518635490485	0.13523848612217004	1
0.8629177488635993	-1.4290757214522518	0.5796934973868965	-1
-0.8240990372416866	-1.0725789993235895	0.13519352944658888	1
1.5066531756257242	-1.1219777203000036	1.334038551387989	-1
0.49071420004838684	1.0156780910796486	0.16702083833685993	1
-1.551533898116947	-1.1823546137735637	-0.0538954494588351	1
-0.33117988732143505	-0.9432337598070251	0.453078148842189	1
0.5682465238822033	-0.9878040344789413	0.3626074650770108	-1
-1.5624559412040937	0.855213899779538	-0.4572453530638288	-1
1.0672702706463408	-1.1555321916626418	-0.8088360189102541	-1
1.818178749069155	1.3453690794443975	-0.31020408584495596	1
0.9517730826376698	0.8268105564118	-0.3691618657571494	1
2.221533235484302	1.9163650818341522	-0.23843489385406025	1
-0.9706582824865168	1.0399478553053814	0.34581049793078417	-1
0.4897402852868489	0.27030325951146583	0.32776969781019444	1
-0.8985968850348726	-2.382092534687345	-0.22338660077193762	1
1.72855210552334	-2.286947722064303	-0.03951853724521387	-1
-0.7871305497622212	0.9991130064416534	0.11645856473872675	-1
-1.6004518979801035	0.4902387001762725	1.0827377076488895	-1
0.8875003664594671	1.186228013657709	1.2291347137626458	1
1.9288008037149214	-0.6252381263856996	-0.07584990185066984	-1
0.48831869549004914	-0.7490290187782718	-0.37180028904793017	-1
0.6524056245928718	0.39683881397325976	0.38281156390456755	1
0.723899068867921	-0.4517851880001894	0.4607227078507721	-1
-1.6264660450824668	-2.132099447772485	1.4608071632535768	1
1.312827285174855	1.2574711102881913	0.6413669641176811	1
-1.5306319225039249	-0.5176319155552851	-2.0201811877706826	1
2.804300747008736	-2.653252133833156	0.11349612306257419	-1
-1.4235578653862282	-1.2649183491142475	0.24298091520781653	1
-1.4855924768840225	-0.9508220721264968	-0.020138902840684612	1
1.1726440834528933	-0.22450573719698053	-0.0758085190717599	-1
1.492439345442223	-0.6085981139965712	-0.030061991914429237	-1
1.2025149762051532	-0.6650954695922653	0.4423774198053115	-1
1.5988607563069586	-2.4889290853686927	1.6601041331661606	-1
-1.3611586813811931	-0.6687487770421765	-0.12649932834232758	1
0.5570407488208076	-1.9584136634482414	1.008247038175973	-1
0.9399099394280817	-0.85376675481206	-0.36228475634921464	-1
-0.6527157193160156	0.9087211775879713	0.12635929159925924	-1
-1.6420993693647354	1.639517354155156	2.3438302065347005	-1
1.14873067048328	1.9941244308422443	-0.07299412148882006	1
-2.0444894249717898	-1.0666855922322616	0.7926538374882589	1
0.9178593058401102	0.7611760178297753	0.31831822260032017	1
1.323845297648901	-1.0875292559902305	0.7282568835096921	-1
1.13000450531238	1.3611585392227685	0.6933445830240836	1
-1.5132134749694566	-1.3699567651456661	-2.816066810297725	1
0.4645893011441874	-1.2013122392981033	-0.3845985103907197	-1
-3.239135028766418	2.41133652791923	2.236900538311518	-1
-1.2638425598297525	-0.8187548763819048	0.16881240868854666	1
-1.4823447690691387	1.1488416633105314	-0.24357185469522116	-1
-0.642839958769962	-0.8982375710613566	0.7539383911131676	1
1.6740644225028607	-1.8897812143607124	-0.2749317175886923	-1
1.019362348952531	0.6357384041397581	0.4834891684626864	1
2.0905494044698605	1.5070534885770759	2.671697204907261	1
0.7110694005044762	-0.41846564134606257	0.010561046664564203	-1
1.404308804315192	1.3495434736898866	0.8706281847150407	1
0.8598445247000392	0.4183109414377908	-0.5988287210165705	1
1.2929894367086319	1.3177063643205238	-0.02584332930145923	1
1.8282366048056746	-1.9494571192234091	-1.4111858172777074	-1
-0.7066072258945826	0.7792717295352359	-0.06933470392399252	-1
0.9613420043384282	1.3210606063712047	0.4804208396461941	1
1.4094024185623075	0.9752397670083004	0.41197969128198736	1
0.8081630769624109	1.209360097334459	0.4137362946868416	1
-0.6249575891490092	1.5153688930631328	-0.12383255531341172	-1
1.1864539988498732	-1.2019082172495676	0.9960768144897603	-1
1.2631504420043589	1.3237788696610724	0.06082003504125175	1
0.968255827749211	-1.1873634108839897	-0.4034056772084267	-1
-1.0105695792321066	-1.0257922498832757	-0.21958876422946585	1
-0.4511438844079271	0.7423882548642933	0.3550621507760562	-1
-0.5442816193469185	-1.1141457131993913	-0.4338688814117141	1
-2.604176405020017	-1.8325295354269109	-1.5369577530630436	1
0.6336929585499144	1.6942317260181312	0.44152302675259564	1
-0.5406105143431156	-1.673762423757764	0.11310425113048897	1
-2.5718849611152255	-1.1330112130944436	0.17426348710661876	1
0.5302935764877649	0.9478220979535592	-0.6096264177911639	1
1.418874590977838	-1.9261309727066291	-0.4243632879721384	-1
0.7857168576554423	0.9172949143236467	-0.959052929040548	1
-1.536364449220713	0.9244395509687025	0.5937535968859682	-1
-0.2844650113406836	-1.069373237867819	0.03078877840859226	1
1.7890873148408732	2.623431613907974	1.1684655270532176	1
0.5838152781286661	0.42944936325864436	0.5849544553524768	1
-0.860901956043144	-0.8539968593092709	0.06241498680730226	1
0.8327232671867743	-0.9209107881229924	0.6693404695572244	-1
-1.482743827347821	-1.9172858287880192	-0.16875782771762496	1
0.6280527530438753	1.4668337014083463	-1.21626419443271	1
-1.0918156789507842	1.3316522187226034	-0.11468844423071228	-1
-0.5463463576688794	-1.7396445210949545	-0.5691908864539608	1
2.059905105610954	1.718828384979067	-0.36029999479246266	1
-1.2957742856943515	1.2548097141950116	-0.5311079910488494	-1
-0.8892118250044161	1.123333901151065	-0.0770657136534631	-1
0.28321222141931846	-1.154816590300495	1.5511335470619598	-1
2.3390434778993763	3.625799603386927	-0.6151468606556338	1
1.4882965996724375	0.5727877823856043	-0.0036110898397971724	1
-0.06810725702930939	-0.6859355734002186	-0.23525680000455385	1
0.8846533837678542	1.091484898034229	-0.5547212416112595	1
-0.8969579342923871	1.5936602029222837	-0.19169178040544965	-1
-1.4914011801079652	-1.1613898784276744	-0.6370155925579309	1
-1.5569294776431994	1.4577702941396824	-1.0118040999583877	-1
-1.0395341868705066	0.25828385064351156	-0.19937612758110906	-1
0.4741938222266875	-0.3327219313407226	0.08123057291928104	-1
1.431648577854265	-0.8976790082604915	0.12232961547062832	-1
0.9721749129385456	0.7845904169422666	-0.6459412703091286	1
0.5449849225423673	0.41231729386237587	-0.18699685526813176	1
2.4967446630724206	-1.0973827928441535	-0.5972471473497455	-1
-1.1121727102923142	3.0293877362498547	1.0850214430424217	-1
0.5763371863419735	-0.6885750344173311	0.6576946449111954	-1
-2.1185998291002495	-0.5762672253440755	-0.10396597396408491	1
-0.482528748059885	-1.1876826138511114	-0.3913999454308088	1
-0.5798174648884296	1.30692005857529	-0.788977810848425	-1
-0.5119152516751484	-0.21003910457839958	0.08785854385209624	1
-1.5558658273292738	1.296371285014033	-1.0006229460757483	-1
1.2780883195517705	1.3062222986527168	0.46437964744214294	1
-0.9711731116221377	-1.324023017709521	-0.281530525726508	1
-1.0640003548435064	-2.7520625307967386	-0.23783891882963026	1
1.0489691795904803	-0.8270025322563319	0.260333458342778	-1
1.1790172654001996	0.9423464318160503	0.9174222632543956	1
0.5572573012916131	1.6146916163572609	-0.5471829663921021	1
0.9932973477554318	-0.7520614806420906	-0.657344075603606	-1
0.7874033926628099	-1.1188658999852354	0.7492633850633622	-1
-1.6616992671091257	-2.603353739956034	-0.9666968015026458	1
0.3870709222984512	-0.6167135394849921	-1.0861122361937054	-1
-0.5468090288284947	-0.9073924223034218	0.05184908874359691	1
0.852080953438283	1.7740911126391299	1.1454266140456253	1
-1.3448687522178617	1.3080305883773666	-0.8984028478103492	-1
0.4770691696769727	0.45716366382882945	0.07458750466222897	1
0.5135935047971764	-0.9319954112208337	-0.6683861543690888	-1
-1.3405086644893096	1.2330809103577614	-0.11087994892964145	-1
0.4375009635729816	-0.5329499185529324	0.17255320885864903	-1
1.5103497283875273	-2.6098410043387643	0.5193301279638322	-1
1.6639915465829849	-2.327009552304892	-1.0445113204055736	-1
-0.43974212386851563	-0.5579678195278132	-0.006477521584547421	1
1.3589160969718983	-1.1849974633555709	-1.207644365543747	-1
0.46832687731920913	-1.6281985523329898	-0.0999164103650283	-1
1.2642692025676299	0.8377847365081357	-0.9034043773162688	1
1.078407628670099	-0.6078885961646455	0.5739572595773825	-1
1.486978823548656	-1.0462492232821814	-1.0294579950647598	-1
0.3873308522554155	-0.2308424138498827	-0.0827222945063173	-1
0.5105950508854971	-1.015811383945091	0.9131558113742725	-1
0.4671351951146073	-1.2540126645164804	-0.05886718399351093	-1
1.0126936656167596	-1.6742985273896585	-0.19284021835550613	-1
-2.4914208476212343	2.3317884224684304	1.8957718681008517	-1
1.223050238774396	-1.5145933275355283	-1.0867321425616758	-1
0.9230562119283802	0.4532049130014576	0.006266724454985858	1
-1.1323496315213073	-0.09132303445534275	-0.7054939670433612	1
0.8724484283290656	0.6883680145015778	-0.1579991332170967	1
-1.3798147187708116	1.2872282307881586	1.2131669973314303	-1
0.901539988597735	1.3494105872323576	0.5128730931088354	1
0.20704683441869204	0.24304911884025043	0.6617295259633809	1
-0.9789326819802373	-1.6368505246895408	-1.7547025582485667	1
-0.7934222804433229	-1.0276459165541012	1.0752130762167096	1
-0.8265172770447438	1.3368922673104202	-0.07665605807668482	-1
-2.3899785369231505	-0.9016341277309394	-2.184779833577408	1
-0.9189398172070307	0.7241657939530419	-0.07217196212740933	-1
0.4669372296057769	-1.296102950541198	-0.34389482600365795	-1
1.162061642141174	0.05292143953975832	-0.481692727039631	1
-0.24130734702207307	-0.5138431185812977	0.8501492161955456	1
-1.8347204592426298	-0.3995060350258993	-0.5931205205105596	1
0.8622731895116154	-1.2066546669557447	-0.6255512253920368	-1
1.6090621125741136	0.8933607073450893	1.440181021257389	1
-1.9691759466106291	-1.8550348160739603	0.76473700126232	1
-1.596712763043522	-0.9933904740592421	0.3800337882527004	1
1.8539723554780283	1.625345249104698	-0.1298036432664395	1
1.1089288612886645	0.5786549891755994	-0.30468245121181525	1
-1.095713548059283	0.3055859042633989	0.6543859393933804	-1
1.3762990036510028	-1.9194847426694397	1.4867085378458227	-1
1.9799878734263407	-1.5971454644199032	1.4917044128209342	-1
-1.6997056684861163	-1.5617319281475273	1.8247209626110588	1
1.4863709369609155	1.3167368811275266	0.7340983210164076	1
-0.4863107453341949	-0.3303519989111618	-1.2545626524120184	1
1.8336157040554104	1.551404628900282	-0.4767885742925627	1
0.6228438594130878	1.2337461139325978	0.9994231856421576	1
0.5584258619480696	-0.9713941166601119	0.7029121738595505	-1
-0.8105724118373498	-0.8636679011310262	0.4284502818064043	1
1.8739941430798814	1.4769006829322247	-0.46382279194918197	1
1.0994339511034397	-0.99207171772085	0.36819455566271664	-1
-1.6811492610487646	-1.107697341837993	-1.3200472360594069	1
-0.7396594039489046	-2.3710790265976076	0.7530542882010379	1
1.1211517949487344	1.6632831214252013	-0.5330079580734876	1
1.2731409393772615	1.6211446568873251	0.6575365123034733	1
0.7095415319253218	1.5569289924269223	0.49667904691714193	1
-0.6143921224766549	-0.8453965538061077	0.49307976814496884	1
0.7432323983321678	0.6735015371668551	0.4670469218500244	1
1.0195056609344582	-0.9659135481912728	1.0313936656625422	-1
-3.168422304295968	1.6595275580843956	-0.06791034479587484	-1
0.9811676106961251	0.9792419541856345	-0.0024069634013554587	1
-0.7909897334004354	1.2915024925711949	-0.2548850561251396	-1
0.472833853468116	-0.37463184939748306	0.0380220051163359	-1
-1.276188499598382	-0.888530646633965	1.1055454694144242	1
-0.6215176370557836	-0.3298515732056345	-0.048643962161277324	1
0.34901696418347905	0.3627064207858733	0.15117984049810537	1
1.021078460506624	0.4390827322894606	-0.09316341279396086	1
-1.533499295589981	-1.5322500790365725	1.1042777036277052	1
0.6969962379712624	-0.6135089751278555	2.1733492582902363	-1
2.3156891676998304	1.802468381217451	-0.44504242592177345	1
-0.8952188595984	0.5158381408984851	0.5970137590284351	-1
-2.2044090809076553	-1.1343506315980751	1.3141345432818279	1
-0.61869892296277	1.2633312006640904	-0.27081009698372566	-1
1.1079575114481464	-0.5481968384337934	0.671900113580235	-1
0.6214535366521403	-1.3239052896183188	-0.46316051819752807	-1
0.6546752614355634	0.3869789496347349	-0.11007483312453893	1
-1.0924387961334945	-0.9701937380163714	-0.43732068065665347	1
0.9554920238231184	1.0569945603371327	0.5104066018020841	1
0.7120984293214453	0.4954315033332377	-0.09059539242793224	1
-1.4103735854765536	1.4664520377519206	0.2791149702975394	-1
-1.420669600115434	-2.23851368766268	-1.847283582523393	1
-0.6836485928827178	0.5560838186701447	0.36011427345560865	-1
1.2664696594897211	0.8795702802466377	0.06845224086993729	1
-0.9090536869532608	0.6231348731338573	0.7720018685608903	-1
1.1278208602976552	-0.7955869570202886	-0.7881193244522922	-1
-0.9534513843930961	-0.862886679011269	-1.698470792069131	1
-0.9621668090536525	-1.4487037072758098	-0.12014707057815749	1
1.5425019759900054	1.3785171982000088	-0.41394487417217196	1
-0.4454871581127433	0.19609666115089955	-0.5557022956579218	-1
-0.15305890050127752	-0.8010767942239327	-0.2506583823260446	1
0.9414286865033655	-0.3721621491041601	0.40206653315259927	-1
-0.7371083318578796	1.6224242560475384	0.030813355151266642	-1
0.37308523331143406	0.6070739070396008	0.045690794200674734	1
-1.703636772238122	-1.245049912944309	-0.05434210219364749	1
1.247649638114083	1.2481544524459722	1.5243698422320047	1
0.5560161304877802	0.7872328403589248	-0.38625007479535667	1
-0.7233876769158556	0.9749454780846627	-0.7881184634746807	-1
0.605020238175906	-0.8747249259354768	-0.5922737402032476	-1
-0.4375348786030911	1.329082317794351	0.9700180518972585	-1
-0.9052212005037329	-0.7094586635914389	-0.1164760802432454	1
-0.7614256915035044	-0.3405146624876881	1.4818345338069454	1
0.7521780858917924	-0.787635355441038	0.502499686689531	-1
-1.2624644330891313	2.640196956674895	-0.045677825076732084	-1
0.9391216547802542	-2.0585936457350726	-1.9570594504878511	-1
-1.007345006951141	-2.1560945000369465	0.308438369025187	1
0.4538136776014978	-0.8286236837586574	0.29458986073819526	-1
-1.8269234776801553	1.0225787571897877	-0.1137389627109914	-1
-0.8932579900022988	-0.5458523754704989	0.3542312625944946	1
-1.6921843544015442	0.8056557237875978	1.5759277810532604	-1
0.7729660496591928	-1.2759332058066506	0.14816090228969164	-1
-1.5022548081130669	0.6538031541771724	-0.0430605432416433	-1
-0.4922972158830361	0.25093430366653074	0.28769007682469433	-1
1.1852842231810379	0.67176602340531	0.16119965832941982	1
-0.6451843564938284	0.6624178956982881	0.2658518310623841	-1
-1.1176533382858713	1.1061098253664665	1.348064284423867	-1
-1.0697521129703351	-1.3446413999553635	-0.9197083018394827	1
-0.8386279277052511	-1.4142177102138405	0.2365976242620646	1
-1.8582271758931297	2.8775019242518387	-0.9813852630575092	-1
2.214538636834199	-2.5598445842831907	-0.699316559171089	-1
0.5815097053694311	-0.6638488835929447	0.011626909872051366	-1
-0.9461232068955368	1.6362127323305131	-0.9949890526202437	-1
0.7798126575930416	-1.43402736311953	-0.8304935398833045	-1
-1.7106375629086727	-1.490519774287896	-0.3639926951385413	1
-1.0024856805898015	-0.9917805623197672	1.524187158469891	1
-1.8999697569372578	0.8181791194747207	-0.5263189699346804	-1
1.0408222343555726	-2.879819441964856	1.456954567477731	-1
-0.7175765579874526	-1.6654802031434124	1.6069582377842404	1
1.6608189293662776	1.161511342337851	-0.05439982837688259	1
0.8655507807132186	1.3755058308710917	0.10029760292039137	1
0.501850237209488	-2.055746679852091	0.3788752328994889	-1
0.9526220681533598	-1.1013713962669893	-0.3409454380129361	-1
-0.5437037561830967	0.9551502790554003	0.04448588628697411	-1
1.8102584076321961	-2.0639796088880242	-0.6281849983229615	-1
-1.4227773253880953	0.35862832088994306	-0.0012067037234774107	-1
-0.7964293985717471	-1.3235466676903873	0.2527451288525134	1
-0.07993168543515045	0.7162410363668347	0.11404278983060848	-1
1.0199229178268885	-1.1230407409836465	-0.16347126532498166	-1
-1.0511726754588968	0.7281047845503366	0.7918484614680152	-1
0.5335256279298831	0.23632408128709548	0.7412687829989048	1
-2.0456564511536035	-1.1531824727923454	-0.10901987536258703	1
0.7840382977094487	-0.20292776148289152	0.553645191928545	-1
-0.7622667466411694	0.7398093097011804	-0.3875046225033123	-1
-0.7610738119888554	0.44632666407382265	-0.17201536783673146	-1
-0.7710255616051462	-0.824675010605534	0.04735617290830686	1
-0.41216273388219565	-1.2799283885965733	-0.8617173780066931	1
-0.9279740499214091	2.8149464042244543	0.23931193832208913	-1
0.7919966869281811	-0.42292768818565596	0.27275592574223895	-1
1.94840630649769	1.1249239487878047	0.5561810932262137	1
1.0562614100492556	0.8115933206848129	0.32522221340546775	1
-1.112229599927229	-1.12352588487581	-0.07654804683090762	1
1.2391741272387313	1.1549994230549407	0.7623299504846204	1
1.0988914465554973	0.2365796450863529	0.1602714155986208	1
0.16505622276773327	-0.19618393818762564	-0.1081687183498794	-1
0.5588432603715163	-0.51028943999087	-0.5944030139392635	-1
-0.642880500391206	1.1111343897015196	-0.4040529724596756	-1
0.6642652745419204	0.24263755536194226	0.4948679369374779	1
-1.251860322662652	-0.4985911158296166	0.8534197993979986	1
-1.3458134439475606	0.9322840717811025	-1.6606803929841691	-1
1.190956815479427	-2.3436851655396644	-0.31168743049826386	-1
-1.1558225388144425	-1.6978482081446296	-0.4686855278138591	1
-0.3564404158839306	0.636720844766689	-0.39074218058178745	-1
-0.37195523836991723	-0.9365275479816139	0.3500025978092243	1
1.4041399508421641	-1.3479085241444608	-0.16886690272135624	-1
-1.9201990572616687	0.7265191469837824	-0.4447823771992541	-1
1.3114175377431978	1.0893375305566921	0.6215281417221528	1
1.4172319102890762	3.692592565417604	0.8439260718662764	1
1.6580302165554726	-2.4185725019598725	-0.9761242903468634	-1
-0.9484169288688455	-0.37247565097604524	0.5271815492052794	1
1.2421074507022065	1.011330365754232	-1.0436456626223616	1
-0.5631281760598756	1.1273652791472482	-0.22042394689275352	-1
0.618007866026888	0.5234520908162438	0.8174318244964998	1
0.7880379193128089	-0.7558011654897037	-0.5019569963137617	-1
-1.1427568768878626	-1.5965370943008401	-0.6720730138366565	1
1.0865203429491945	-1.2187443799924025	0.0713130091942105	-1
-0.7321760734294022	-1.2373510902070217	-0.273396009847211	1
-1.5612747143693517	-0.8883352781843514	-0.6810347417404248	1
-0.8588963196607389	-2.2410313581510373	-0.4044727516156199	1
-1.2134511200764238	-1.0484094088375757	-0.9529950807214754	1
2.0768580373750214	0.7193468078889792	-1.2312339937397418	1
0.29147148201832496	-0.3557895792982805	-0.4137507179228328	-1
-1.0950318278145035	-2.1398216856805012	0.3249986188044971	1
-0.7167510140882809	0.2778456221698948	-0.8397985012849577	-1
1.4889408766195822	-0.7509233849127788	-0.058945777104087424	-1
2.062152844157272	1.9668734390747549	0.4290224830449133	1
0.6430161788770585	1.5822463091214074	0.2877802981257638	1
-0.7926725023922823	0.9913530755569515	-0.7247506754051908	-1
0.5689116479409287	-0.8543956245849043	0.6068356548357465	-1
-1.6982475340293155	0.8156691555402379	0.23473475426193716	-1
1.7660140084687521	1.3869588862365223	-0.2794088717065509	1
1.2273282764371962	1.8140796820010936	0.17960114914533404	1
-0.2924444717421835	-0.8887132281332013	-1.6263210215121735	1
-1.0118422056668523	1.8711195312763569	-1.5587608222156544	-1
1.443381385752473	1.0433776888041624	-0.09232940361984449	1
1.7347822938205957	1.022341557182695	-0.1806429739509896	1
-1.0319206321402867	1.0560852817246622	-0.2809094209945481	-1
-1.053360013022173	-1.3529536580401937	1.0266034192975586	1
-0.6020411327110249	0.5640947269844374	0.6941279649478784	-1
-0.4829414788969303	-0.41739828132745205	-0.515068243733074	1
1.7004473730400758	-1.1506140654533352	0.4121959067138239	-1
-0.4127418561393255	0.43181288456639827	0.13151212999988726	-1
-1.0469138901717818	1.24018724841794	0.23890987257552881	-1
1.5754569782370376	-1.8133977715395135	-0.042335739610405404	-1
1.0422285355937606	0.6417392616923083	0.4572403237046978	1
-1.2225535854414176	0.6675526317487296	-0.0808177042797523	-1
0.7616385080592059	-1.2346675828304985	1.1581544815020388	-1
0.577530074507777	-0.9986263762395169	0.7497724683511496	-1
-0.9700416604076012	0.41551978506784215	0.17362311354326543	-1
-1.819756877599794	2.275480464059576	0.23905533080708868	-1
0.6235140660328556	-1.4725285712923357	-1.3650326222945595	-1
-2.0577598422098666	1.404180500377839	-0.017049404936846604	-1
-0.5241470683020797	0.8349436460014351	0.30434736784009775	-1
1.1890230079477715	-1.1418973011347031	-0.5045725966921993	-1
-1.4684258856899712	2.027301156353705	-0.36634289076513327	-1
-1.641918255955931	1.2352015120867565	-0.18599179518588216	-1
-0.8572282502142876	-0.537503001409863	-0.33752858251645945	1
0.6424371382201892	0.4668549134051741	0.4339786790200318	1
-1.0301640246864567	-2.4191811059101394	0.32824682408459716	1
1.4632591821765724	1.5717964406274625	0.2623996195173669	1
-0.9922127869026278	1.7156708717677065	-1.2196036346934724	-1
0.9570724785134531	-0.974187274956334	-0.22236807976930173	-1
-1.2873702964530351	0.934760354573321	0.18580620481134616	-1
-0.566735714765624	-0.7013056985538718	-0.050494502702768736	1
0.8698846225053548	0.7625145474858194	-0.3750375093523507	1
0.34162201837265244	0.45622043535416146	0.6388088860994554	1
0.870268107253582	0.45162698026298737	-0.32493837801969294	1
-0.7866387600949432	-0.46945129385472534	0.2073139589821853	1
0.6521073740427099	0.43645737913113614	-0.3270751596863857	1
-0.6301739908477659	0.6663365182488804	0.14039088646261305	-1
0.6963177378914113	0.9887173110002281	0.6111498234560164	1
-0.9166291855134587	0.9499466599687645	-0.15941611049531118	-1
-0.6266329037329127	-0.9726956425505495	-0.9825928130611563	1
0.9046703988084053	-1.703489816459955	-1.7531642456440075	-1
0.9561759807808198	0.6369277707771379	-0.020132319170406886	1
-1.8503058074246355	-0.9918949727714153	0.2729688900906607	1
-1.3412824199267028	1.3999900873314566	-0.5267244061799622	-1
-0.9833415625339864	1.4692759048465431	-0.06705428696813959	-1
1.3434420557710602	1.0267560908826479	0.03712203479680216	1
-0.7188250191026795	-1.724651727663935	-1.1789989993604668	1
1.2806815257966129	1.6150565442300562	-0.8393917592461269	1
0.8465065303990499	0.6201716648926365	0.10383873406974897	1
-0.6462907541060234	-2.104374491879116	1.2219496967274575	1
-0.5888817808091692	1.648273644902526	0.24340191558029747	-1
-0.6835829745435595	0.5844961876538248	0.9099762681058056	-1
1.270675421825937	2.0707243098786066	0.8175271034541121	1
0.7633940238890737	-0.9889097980590483	-0.24996287232093964	-1
-0.3216949345335117	1.011212344659926	-0.04467240187727832	-1
0.963475400209113	1.1878985720920967	0.3572347838360057	1
-0.5890547684190619	-0.7750634514725366	0.1745349795708291	1
-1.5451943738792284	-1.598212973760333	-0.10207178883908881	1
-1.8764888254548673	-0.8100943002109827	0.8819881114550198	1
0.5499858638261564	0.8837953775409317	0.7409798447443646	1
-1.7179947195959184	-1.4204757242426533	0.0880779118121299	1
-0.45097799273359307	-0.5216571490841511	0.6015465043074117	1
0.8180835688663738	1.2054372087701122	-0.8876128792692054	1
-1.146903776751219	-1.48585854018606	-0.17684674465633093	1
1.429813149474023	-0.6064779987745623	0.34346632907538216	-1
-0.2734755055713077	0.9316240125516966	0.8223010849300576	-1
0.5233942022322506	-0.8056007879293579	0.07196068437652733	-1
-1.1202649177255797	-0.649170614291979	1.096696782012954	1
-0.4376227028054283	1.0426961797678134	0.13821740048458742	-1
-1.3826976964189903	1.1275826693188504	-0.2294688836417359	-1
-0.804485778221258	0.4340064536334983	0.14609284642921497	-1
1.1418030923762095	0.16621704085641217	-0.36632185755774416	1
-1.093059902849121	1.3386291153297014	-1.3376814610191716	-1
-1.990396661937297	2.5138527340093804	0.5697839199752432	-1
-1.9758156546813086	0.9619821756862948	-0.3520000582340379	-1
0.538168118871097	0.5799991024316911	0.13581052282135908	1
-2.2637575373775363	1.9923001856460483	-0.8973102481195061	-1
1.1624363565083082	-1.0940858902688628	-0.9611212902122813	-1
1.3589330801836141	1.8973120792782299	1.8050606920959287	1
1.4054433573474694	-0.8821009359571432	-0.28210642930438756	-1
-1.3138276572032064	-2.071157963541532	0.1912370506428466	1
0.434004967247087	0.5192994844899639	-0.16083860737409128	1
1.2311793703580909	-0.895298849636575	-0.35788050097427415	-1
-0.8952155432693548	1.6691136629029855	-0.3708524531939657	-1
2.315271157860198	-1.6983454526701602	-1.614228988473162	-1
-1.1003239472092017	-0.8714197605451419	0.25474270011399136	1
0.2850945759513339	0.363916920658558	-0.03651991380998752	1
1.4597236722809392	-1.4380735646097673	-0.10526160264071777	-1
1.4962677083156186	0.6567962927425509	1.1722719399268895	1
-1.1027403243025846	1.1343944952612883	0.28703248602004067	-1
0.17254765662911298	-0.7272540694029588	-0.7527465419786976	-1
0.6448108049520844	-0.8257734556298921	0.2850812926607881	-1
0.5823510969020607	0.7337051308366404	0.21961954985936408	1
-1.3139665967203866	-1.9862947831030522	-0.5388107571443832	1
0.4083052284457249	-1.2021348436261339	0.30868147841531685	-1
-0.6507352358907958	0.5695019859078876	0.33575009214062346	-1
-0.402963407135816	-1.2459968772540337	0.6516766166807317	1
-1.0741036296051982	1.267873177312949	-0.27176674815620694	-1
1.1743490987076557	1.372762380245055	0.394856396059702	1
0.7293738794558864	0.8094762534804768	0.943006900395695	1
-1.1859905106895847	1.3642898221272315	0.3570376127565398	-1
-1.108025077054719	1.4354226217241088	-0.5252383794726307	-1
0.8792145381281724	-0.7778965277001766	-0.3982026067715567	-1
-1.2269994765295524	-1.9577731800925613	-0.6210162423927057	1
-1.2716798846452253	0.4853242132950044	-0.4738351465498717	-1
-0.6023124948318942	-0.48845333821654485	-0.9450948736983604	1
-1.0615980874073707	-1.4260422590613822	0.5293790952005781	1
-0.8620225361133446	1.223837719860589	-0.11470350667654211	-1
-1.2221516744412124	-1.101399365937523	-0.8422743154892125	1
1.2878320813790354	1.154912475715102	-0.9265853881654006	1
1.047500122155946	-0.3609637655477237	-0.7514286808516993	-1
-0.6571209888394574	-0.15870522380259627	-0.7100333002812278	1
-2.4147389634071947	-0.9665711836022595	0.2730664880240294	1
-0.6644911209520685	1.152338356475565	1.561136419461308	-1
-0.7442381754111742	-0.4963612481644908	-0.2577262726094832	1
-1.419887704160681	-0.9346964359270232	-0.01407327858495538	1
-1.6224156303301804	1.1922953882677734	-0.06816718953046849	-1
-1.4138093818155846	0.5080420150174108	1.2938258590159673	-1
-2.4706874140695954	2.0544624181386206	-1.7204062463312368	-1
0.6766762764676378	-1.5820708458004136	-0.5021251156071026	-1
0.6051062792865353	-0.776402523840555	0.008254007904286837	-1
-0.9748004719130792	1.0747574875680446	0.5816363217505313	-1
1.464143976037992	-1.2185101370948046	0.08687701071776982	-1
-1.1433267844012378	-0.7536945573713139	-0.5250041895680453	1
-0.7641555225893759	1.6003837668976315	0.29381862409240966	-1
-0.9512533142647013	-0.8925740563400365	-0.8314109575735344	1
-1.4699514569706333	0.6408975768735525	-0.4616172612902956	-1
0.37708087367260534	1.7741416736303208	-0.09765326616874187	1
0.6316827301228248	-1.0927282733288246	0.11446022177604948	-1
-0.8750967435621173	-1.0005556572964587	0.5483879604365967	1
1.921028124970776	0.6540853348484043	0.5514602835712928	1
-0.6634909003905132	-1.1744633759173628	0.23439784416407367	1
-1.5966062989867222	-2.429447015176076	1.530431975034928	1
-1.810327614436717	0.5854288008563544	-0.6797405925226064	-1
-0.8229729628862864	-1.504699441611506	-0.01563555900001949	1
1.4196238991147179	0.5621209556408568	1.0236121478250948	1
-0.9643440514054282	-1.7415780168280641	0.39120019247476906	1
-1.33043850656575	-2.757681360134315	0.15318704477545972	1
-0.9123604506905356	1.777269117487283	-0.14404448219477567	-1
0.48394365641361176	-0.7747528258820902	-0.45672031623158293	-1
-0.9206824085224135	0.4108184410569183	0.09672304711538865	-1
0.6126884896618607	0.8061993318355923	-0.32483625095252566	1
0.3568116999413672	0.4628014156859457	-0.5142777692237839	1
-1.7674933337374	-0.9165953130399888	-0.36767811911948656	1
1.0452130189975661	0.5869491724405003	-0.8108090243703812	1
-1.5866083756607035	1.570323204469179	0.47776295153698733	-1
0.6524511574238268	0.5237155976683582	0.9188250933983781	1
-1.0838060674494892	2.47753295978288	0.2572781176091103	-1
-0.6831031451879082	1.4584135892397694	-0.03308547709494176	-1
2.131983485799868	0.9850661870343775	-0.015500866552294709	1
1.1483150043575647	-1.132442219407189	0.4044489230763366	-1
1.7084868505574922	1.3578882604316918	-1.3775996742062437	1
-0.7733965970833345	1.4013073853969775	-0.010584254970684187	-1
1.297308085919364	1.3707551592997111	-0.47928272782406156	1
0.3403255682450102	-0.2622725473522465	-0.9333994278487054	-1
-0.9984772700410776	0.8502884010760305	0.8983152501926224	-1
-2.123617296825777	-1.8026949469360445	0.32818938514377105	1
-1.13186806665852	-0.6940470545268851	1.1185455606555914	1
-1.636067940696381	-1.0835161542782499	-2.9525951907907086	1
-2.2714484594165127	-0.9163970869560708	-0.31500773806697135	1
0.9739832017120893	-1.134598742147769	-0.22286048921675441	-1
-1.1435060615462214	1.302225794341796	-0.8698252469579835	-1
-0.13261283313111646	0.6197153038031864	0.6307087417363957	-1
1.6143082879603814	0.5490112485003233	-0.363723041859928	1
0.68718770253242	-0.6453946257945143	-0.8088023363892534	-1
1.7864954342629584	0.8933984822233314	-0.09761657750860843	1
1.207572355047823	0.7956621209408814	-1.624054975041353	1
-1.118966467548639	-0.8810622800564244	0.9090988439569211	1
-1.2048519837694456	-0.6846665550732972	0.11856457500215073	1
0.6541797289935739	-0.6911755422425064	-0.45476178153839736	-1
1.869052973325367	-1.5796917761202922	-0.04050637026405849	-1
1.6337904448921026	-1.5978797590659868	-0.5164676813153988	-1
-0.9405426974539475	0.8664639109432155	-1.393982555982639	-1
-0.6942204547525016	-0.6051721092426903	1.8605480767976845	1
-0.8883571571228668	1.3328146036868984	0.04965819694611504	-1
0.9791041262890621	-2.0455217531719896	0.07637970304519184	-1
0.5039545771508516	-0.45699955180022955	0.2066962297474475	-1
-1.4187805603727903	1.6172085383454404	-0.7709205677640083	-1
-0.859680824704101	0.610151968040213	-0.48628234791501185	-1
1.5587548871967791	-0.5823045237062693	-0.45410438686324733	-1
-2.0828499842813293	1.3010953955598952	-0.426619840637119	-1
1.9127132112362464	0.6243264035775384	0.784898336842254	1
-0.8858225858080657	1.0709397341179205	0.5730141382760463	-1
0.7276130592804143	-0.3122054173540536	0.14145742075712328	-1
-0.44904320522073926	-0.8978600971328553	0.03668150803149616	1
1.132922329363267	-0.4890281836417597	-0.4759891686443005	-1
-0.7693596061087675	1.7316871195382983	-2.5427466707258333	-1
1.858039281532541	1.4205798837566148	-1.111035295953878	1
-0.5223255067852324	0.8757289728181887	-0.7681902018889057	-1
-1.1520812225286234	-1.1614194017874366	-1.092968203302611	1
-1.0736816547404981	0.7447319311020559	0.05529853030890554	-1
-1.496455580288199	-0.8360877131899499	0.8389795260156085	1
-1.0053009858009023	0.6983282631233965	-0.7146495864190651	-1
0.659923729781843	-0.48957205580676344	1.0947667383009532	-1
-1.5931050937819484	0.6449818400066962	0.8246106964179769	-1
-1.1202234672374902	0.6751962257601489	-0.14359283339844015	-1
-1.3204220023519577	-1.4701193770496386	0.715313180007298	1
-0.6334983936894876	-0.4585173647605558	0.5314027720758684	1
-0.9147846359482223	1.0758273782179724	0.7395616699047549	-1
0.8944661736638446	1.3818701363490749	-0.932197787795187	1
1.2551983891457401	1.8057744884504583	-0.7639026375065675	1
0.5846225457710134	0.5971822595941297	-0.1016991937656288	1
0.46891009744462353	-0.5440543839376486	0.8441914335588551	-1
-0.5335678398200219	0.4340063103282817	0.24050049521597808	-1
0.46587218901034777	1.4356079352548656	0.6368299133728554	1
1.4991555405243915	2.2550466706657404	0.305624056596566	1
-1.1125256698477946	1.3641304663852987	0.49560649206336027	-1
-1.2005359344697868	-1.0086131927442636	-1.2010970380325905	1
-2.266630792725514	-1.382255519733266	-0.186597471832112	1
1.2376541039914668	1.0999136295150622	-0.7403768741962629	1
0.18210198368105912	-0.6712608911986357	0.31573501660185477	-1
0.6205758803879646	0.23330514127682295	-0.3112507996231064	1
-0.8119473358605142	2.2873135981328256	0.5087756686340196	-1
0.6515852335666803	0.7853693026567117	0.24003611579266754	1
-0.8264434946638022	-1.7458023555888333	-0.6956268544870842	1
0.7429640629244522	0.8395208549973773	-1.1108163457519806	1
-1.48893548910997	-1.7029796979573186	0.596176374978628	1
1.5078058240783383	0.2591884590314494	0.5172420524550079	1
-1.083780235121441	0.3755175652232899	0.5327501813557836	-1
