0.5681450099557654	0.8673936121626413	-0.09935766151896919	-1
-0.35202237316272356	0.8978468063957281	-1.352091709426028	1
1.5564740414796348	0.4060801571910487	1.044444381346025	1
-1.2960011110581038	-0.5613170845541484	0.4994707410228858	-1
0.6218005452175199	0.8995614858787087	-1.6533340609848832	-1
1.347910207952217	0.05337656499855815	-1.750314166220128	-1
1.1549274234190456	0.62884138399399	-2.352123611568833	-1
-0.7836933768595583	-0.8149020858619327	0.8349431622767347	-1
-1.486914865075278	0.2950903140556167	0.9538834455267853	-1
2.1985041153610263	0.4788040355074832	1.5107702020335707	1
1.1088924980678607	1.2817363451330823	1.0670780601701753	1
1.0042302735727688	-0.39650024163603137	-1.818645492954622	-1
-0.7296298953743359	-0.41512063397044496	1.1828618667420563	-1
1.2991610244771965	0.7518558265025941	0.6076335867442886	1
-0.9008276293176265	0.008025685513417095	-0.4172959080472598	1
-0.5223358388220298	-0.07342802049591439	-1.0311827764697625	1
-0.5027305437517982	0.40847056102117707	1.1280633077363276	-1
0.7260107826762768	1.323474970581779	1.2264620583086612	1
0.7689213263775021	-0.33342739844611635	1.6294998246610595	1
0.595684833608236	-0.06000268545828031	-1.8620646393664377	-1
0.25820364392495193	0.9408936703765481	0.8721470892305412	1
0.7338525167880748	1.1917930546441857	-0.48767111219779063	-1
1.9898120102788373	-0.7709629632108799	0.9827416875284727	1
0.8236776393518155	-0.2305717836411238	0.4309023891945703	1
-0.9055493157009313	-0.5252930069664677	-0.18096691250178726	1
-1.0607856807125642	0.08257229509512469	1.9254038843737376	-1
-0.5290622761972499	0.6127883623934751	1.0156679675118339	-1
-1.5405952853553262	-0.9205502529179578	2.010619581663666	-1
0.608973656039443	0.3494557816242295	-1.009040076199792	-1
0.6892001216083872	-0.11803818561903502	0.603124333142877	1
0.5144243140137934	-0.7186862157592652	0.646046728443694	1
-2.426051356618492	0.27905911108873876	1.9442049579457783	-1
0.5317235956987985	-0.060376172817213115	-1.0338060438291912	-1
-0.4963976177860377	-0.24032875521275937	-0.6796299697912086	1
0.20797519062391448	-0.10402766762323826	0.3830377673396437	1
0.29446797922539114	-0.6813822401325479	-1.8539513703070907	-1
-0.6959662501167572	-0.7566636981492392	-0.8965116611193453	1
1.0927741586868327	0.7108226369896371	1.6862936652172227	1
0.6595732615298597	0.09031911194413852	0.48633821027056245	1
-0.6744595975835149	0.40149102739005543	1.0641751963573078	-1
-0.818997217208068	-0.2993428300036853	1.3133653475871065	-1
1.5766118778138225	-0.6941422617321042	1.3079768366320788	1
3.4562218547528865	0.5888456653343364	0.38496038876790317	1
0.637125886348318	-0.7450581427621856	0.9169709694391959	1
-0.902432016702923	0.33922075564564447	-0.19577635848215116	1
-2.9169262960714892	-0.10439189137237359	-0.8909492970684956	1
1.4165783811142227	0.07422359898068612	1.151629707078975	1
1.6045439783072812	1.1954098505539825	-2.3544246167357543	-1
-0.1566350691812759	-0.06439571920858171	1.2054724666567298	-1
0.9804425299023185	-0.05382312442421787	-0.9645321666360382	-1
0.541098734161013	-0.9029686332274156	0.9949584433360684	1
0.814236201999132	-0.36439066238719225	1.7368424062812484	1
-1.1371789447866725	0.8277599985836623	-0.873159590018123	1
0.6318208756382718	0.00547839269636475	0.76764869849654	1
-0.9981591967352337	0.04809399548888657	-1.3399686298017193	1
-0.9706623245585548	-0.7711529496387165	0.3216948364519022	-1
1.432533226336504	1.279248601194789	-2.0011915700572476	-1
-1.8355191512140057	0.8298945640172957	1.6750264886335045	-1
-1.999115310080022	-0.2456572761347977	1.9321613661245625	-1
-1.4630381801271648	0.47736487958685886	0.9864666319087008	-1
-0.781901135508293	-0.4728871590862823	1.7792002831185294	-1
-0.8612845370027996	0.5478152015256836	1.8845886250056074	-1
-0.5698925768147085	0.2722124778059316	0.8889299670037103	-1
-1.0150217867299194	-0.4115118588966143	-1.8062342839138474	1
0.38552434574934075	-0.47678152457612183	-0.4604613912464075	-1
-1.387772597387688	0.5980222313768094	-1.0483695713124228	1
0.7804436980069498	1.820942863791768	-1.4991038096950007	-1
-1.5011707386627715	-0.4134521523353061	-0.99166783978237	1
-0.45391632775468604	-1.3385164446394717	-1.0256780083278216	1
-0.4587929994089933	-0.3120408925213551	-0.4148275883261854	1
-0.8358864384983239	0.10568816247452525	-0.7305246331666667	1
-1.133106316007903	0.38555239764375226	0.29220985312210407	-1
0.7043060773304548	0.877480672083373	1.7002482564195405	1
0.6802756839824095	1.143042814741834	-2.5815340138772074	-1
-0.31950379406696283	1.0736640409072704	2.0215530574222553	-1
1.246981583772118	-0.30617353391861213	-1.1859166218783745	-1
-0.5298801635224955	0.5261862909700206	-1.0373063647503433	1
-1.4767626246525514	-0.08486994019722023	-0.7312115624284706	1
-0.9574117464231714	0.7866664006134615	-0.570970573705911	1
-1.1157372892282158	-0.12909000060332693	-0.589263605493447	1
1.0823167237271283	-0.43487571771620304	1.7933411024812922	1
0.628720027498741	-0.7121366638437652	-1.2432423004203568	-1
-0.6008663749018683	1.3627446445503493	1.2581747636841685	-1
0.5923449013043225	-0.5204877330092954	-1.1242326318302485	-1
1.0420635766482267	0.28717348214873956	-0.8249596927792828	-1
1.4121120312691855	-0.8307258198067655	1.4247999907907953	1
-1.2852914757979472	1.1107381043186324	1.6208193707741947	-1
1.417402562168737	1.6007609568148302	1.2133846450540406	1
0.9384661848617473	-0.0791871597775591	0.7640328968223098	1
-0.5196884162668128	0.07055124342274148	1.1287854523860152	-1
-1.9360090656334201	-0.6311396276840798	-0.8134441334488206	1
-0.6492189872423195	-1.599293454408914	1.1660889907000729	-1
2.5368651849940247	-0.43068447367183926	0.7462280212859764	1
1.3321672382680565	-0.1168715201159597	0.6384942146674434	1
-0.8465129591014883	-0.3072937456014188	0.7108050833691648	-1
-0.889979879391273	-0.18404111031390005	-0.42211281627741487	1
0.5384791451025556	-0.26678449620754413	1.0931715799346828	1
0.6564438502294597	-0.014734312818777854	-1.7122362500843347	-1
-1.1825817821080942	0.45424973917194333	-0.9399495078361532	1
0.5978118899093023	-0.25541231241743123	0.17457936454636885	1
0.7868015770307675	-0.6094935654142207	1.7780842465232027	1
0.5975023782879435	-0.0202284956098435	-0.8558705472690633	-1
-0.511447510658132	-0.5113667195260501	-0.9970977141370665	1
-1.450179390963518	1.8174138902989454	1.2672513792302584	-1
-1.0197814479979725	-1.0236432732686063	-1.8460226219449414	1
0.23199893043929778	-0.5500685649075054	-1.1116693766985803	-1
-1.5980097321604667	-0.7057381525117884	-1.1093660772838732	1
0.3675455455554918	-0.2116034149472844	0.29750986328294104	1
1.2817038780893468	0.4042883924159997	0.8406567402111804	1
-1.5598251680653399	-0.4527064999038442	-1.9391992532147793	1
0.9742023213467906	0.783277298630258	-0.9890259405337992	-1
-0.5005068646452235	0.3924995368858095	1.2141959747966027	-1
1.217644355901672	-0.3741325087367183	0.9630103463435057	1
1.3625453171467279	-0.8663709387116061	-1.540605391297229	-1
-0.3177331771833177	-1.4830882274893593	-1.5849720009053494	1
-0.6601268366782154	1.6774418904392174	1.4312863176720212	-1
-2.1498221546801033	2.164681680641069	-0.8995020724061449	1
-1.9304754284866563	1.809986085726627	-2.265985444940871	1
-0.9066767454483449	-1.710701730096162	-1.7636759738376244	1
-1.0509967530622812	-0.31034783963640133	0.9205330640375107	-1
-0.9221972064814468	0.713918011272632	-0.5635827676937166	1
-0.7217312712648912	0.9016344675799727	-0.9314876546232043	1
1.5442029195424478	1.4575081797753207	0.8818411752196954	1
0.767836983596308	-0.9951382669405122	1.2176298764968287	1
-1.2138192851782763	-0.6904235643527336	1.9901786831609152	-1
1.2811853361819157	-0.14619502026893327	-1.504258481851826	-1
0.5375761554252325	0.07313116994416706	-0.6088062655266098	-1
-1.3232209903223109	0.20914143572755073	-0.6906984548898638	1
-0.5281057560701397	0.40477456354428754	0.1738056104130279	-1
1.2536035784704171	-1.3130926537081054	1.1385372556047768	1
0.9943516059851474	0.8144169733859188	0.38075082715535313	1
-1.0064138545925347	-0.09624372835161317	0.21292497782186706	-1
0.8519945603846476	0.6010019283215513	-0.8483902021138167	-1
0.643380305600759	-0.660552063374932	0.7348161407750001	1
-1.847285311703574	-0.6882893959142626	-1.627335522832754	1
1.0888808498488196	-0.9355593395945873	-0.48925062654817986	-1
-1.6912584368050085	0.6075299896340675	-1.3479723236025596	1
-2.433735182837363	-0.2487222547448349	1.8245535488052438	-1
-0.3629982050416594	0.2295268587808973	-0.9609466418988952	1
0.5951093277951327	-1.2889015035731008	-1.757665953523869	-1
0.5953465409425509	-0.23282107553092551	0.9556546936764851	1
1.2856593990975307	-0.11923253160614372	1.1624423093655372	1
1.4061366577761254	-0.3941375491260798	1.052699560339393	1
2.3915056721477805	0.22035621349922152	-1.3667305473945173	-1
1.3310235091053864	0.5059525728870664	1.9203879509546695	1
0.7679504569511999	0.41642319234898034	-1.008138540006527	-1
0.9869892162969547	0.0044514926994742975	0.7075752537492843	1
-0.8691844040083927	0.444212451251054	-0.879042330445143	1
-1.247930181295236	-0.3657794753437274	0.4695330488474794	-1
0.9955693785828112	-0.15738313782427957	0.8120352755609053	1
-1.2417876920003006	0.4418982155620378	0.6035913698772974	-1
-2.1050448311056034	-0.23715243322188942	0.9054171523502715	-1
0.4117014594920628	-0.8923763799241141	0.7496078538948563	1
0.6238721672373634	-1.0798898975877742	-0.500487686519388	-1
0.757964136435894	0.01513419217093864	0.4570679317482678	1
1.2832060094910478	0.8889682877122136	-1.3956284427151033	-1
-1.1701988343895866	1.0236916631532171	0.7597480881220747	-1
-1.1447509290338727	0.7583051717014779	-2.234129433211211	1
-1.1890881060177603	0.2669000254978573	-0.596849747560373	1
-0.27387891212871307	1.7057052943969762	-1.1340093090038779	1
0.43245774622433897	-0.5704451018704276	-1.2070381856236514	-1
1.741263101952582	1.4477621378394145	2.1772086861310447	1
0.639466558833216	-1.0198311655362473	-1.2848002906660128	-1
-0.3072412776028739	-0.361545807557109	-0.7893321213519517	1
-0.9871882397863234	-0.4025787785058965	0.46331604320260605	-1
-0.4098481625874978	-0.36505498568949435	-0.4621116206217715	1
1.2645063004543011	1.2047861454218174	1.4267827739069958	1
-1.5989407485150644	-0.8902148033476898	0.9243665480522647	-1
2.1730533820234865	-0.4536014747813705	-1.1657062408540413	-1
0.5571380477110651	-1.0433818114296871	-1.4298370405196663	-1
-1.9412570491101822	-0.18165317062537595	-1.02899711363898	1
0.8622568023704141	-0.2615780481633867	-0.9451908600501963	-1
1.1077949102215021	-0.27161496162134696	-0.38621715864304695	-1
-0.09689900898088963	-0.18201910269223076	0.933166608324755	-1
-1.2172295771876456	0.43736959255686064	0.5729461017166724	-1
-1.2553224372808711	0.23356318910435347	-1.0437119217453605	1
1.482310903126082	1.1683594692386392	-0.33103937480652157	-1
-2.1464823240114397	0.8207633760175428	-1.690829871963799	1
-0.8650645313225194	0.3018256590224523	-1.1339457408987472	1
1.1293170785889899	1.3758541819630348	-1.7841553925476914	-1
-1.7923950488082403	-0.13300559967226117	1.5370974308740835	-1
1.7468184328644805	1.2540458381789743	1.308583101431837	1
-0.8251339180330381	0.0439252346049292	-1.2169143448145823	1
-0.743590856428805	-0.19473044203276063	1.795534267821365	-1
-1.2287008435908393	-0.7566029022322837	1.4485683109678709	-1
-0.6489398006763911	-0.07142643637407868	0.5886129311326671	-1
-1.196935700862094	-0.3242504987550213	1.3713968850958493	-1
1.8903916077715484	-0.3202874500834884	2.2624268363456608	1
-0.9896832426243845	-0.5153628586871144	-0.8112069210140891	1
-0.38604272593590655	-0.2571565260451828	-0.9381910777112223	1
-0.5943456726143155	0.746729013808139	1.393314381849374	-1
1.3928410684476065	-2.103462732170549	-1.413657213944572	-1
1.5521247770733195	0.24236745206114688	1.4150236030037417	1
-1.1296913613705704	0.4408836585025582	1.468236852983536	-1
-0.30020150652168665	-1.3972464598223775	-0.3451883819126046	1
-0.923837839504249	-1.0510444429757393	-0.6568479648681009	1
0.7688255216266406	0.08653907829249742	0.5395671749738262	1
-1.0518069288318095	0.6505750791668119	-1.134818174300288	1
-1.6645713728963605	-0.20289691771071133	-2.017465190233386	1
0.40586456693594275	-0.15838297852355454	-0.5884342968869162	-1
0.7358118787399208	-0.14227921526417855	0.8370098727567779	1
1.1513454210789542	-0.32894514284512405	0.9361232797582861	1
1.2919074497579341	0.8064171328476835	-0.8217710196017403	-1
-0.32073087640148257	-0.012363455294599132	-1.034821367269888	1
-0.6798000179448619	-1.4735752452287774	-0.8240808686474194	1
-0.6807945078121163	-0.36412000139894907	-0.35603017292720307	1
1.2971866871841682	0.061450403618822244	-0.3760789344079694	-1
-0.14717582094281	-0.7306740566003597	-1.1085943158551708	1
-1.0253127182357584	-0.7351043052540276	1.076071004540478	-1
-1.4151422050606906	-0.5407197699067199	-0.7799501095538786	1
1.2607535593954153	-0.7511004546364207	1.0186566573301779	1
-1.1088890801889786	-1.2416336436527757	-1.4100770860756495	1
-0.4002180217651191	-0.19346572291640057	-1.0536148817398567	1
1.055174550433608	0.11804233887857529	-1.62987143802059	-1
-0.999300105813274	0.44666914349974907	0.7072584306344316	-1
-1.2228603335882573	0.9466585402373303	1.5047830162044327	-1
-0.9390317294173466	-0.8138223989577222	1.5527910879278184	-1
-1.439210882707637	-1.404559296237186	-1.3217504318008229	1
1.843888330192335	0.013844911992361509	1.45718185724914	1
0.747683941125719	0.9111680095420756	0.7951671595846942	1
-0.6187458591244569	0.35751095196710125	1.8517197345973386	-1
0.4732191173430654	0.7568712717869874	-0.7741944742832259	-1
1.7338806278663328	0.045674828916398125	0.894639192184866	1
1.2554867530678013	0.13106429280217483	0.7407476274638538	1
1.2931111837034002	0.4768678828318744	-0.7454321893258395	-1
0.7444826762294823	-0.4515035636274654	-0.6165153232094231	-1
-0.5055847092689063	-0.22856498606322387	-0.9650750599028602	1
-0.5070929362513652	0.18184909705146016	0.42640621256610367	-1
0.41405639870134303	0.05011317368100103	0.9257821925630317	1
-0.8138863632387442	-0.22169445819442093	1.1121136498643711	-1
1.4228509026647984	-0.458162995226553	0.6435745314686421	1
-1.2969374399653457	-0.9482282527889111	-0.672926139649094	1
0.7942894753972345	-0.33485750532833247	0.7142641943296817	1
-1.883110131356462	-0.5825852635058895	1.8936016090108652	-1
0.35286160715072934	0.15007088250226663	-1.4409827536198043	-1
-1.054038280522306	0.06802640523097375	-0.6631692041046351	1
0.46562337803333836	-0.20664775503638427	-0.4434974061065283	-1
-0.5694698212547151	0.6148015139888241	0.9260356699538601	-1
-0.5896924297039637	-0.2784840094948985	0.5839285341634504	-1
1.3766041153838056	-0.005549435193818828	0.3264957719366699	1
0.7898984699919348	-0.1455305210010564	1.570608685184037	1
-1.6256676100939993	0.9306971758482583	-1.8885389165675195	1
-1.3495654597751925	0.8156221243318464	-0.519637571440796	1
-1.4794633449600454	-0.37967574256532044	-0.6295640179450166	1
2.1930430177368954	0.4565862448149025	1.1462363744402218	1
-0.6852814148902265	-0.43299657082253035	-0.9975400768981195	1
1.0524711745227555	1.3519346452771965	0.5944623504064417	1
-0.615789399745613	0.6848400027632163	0.8164044569505624	-1
-0.5515717811298101	0.3653785090845661	-1.0786672466442488	1
-0.6427266026614417	0.521011537925861	0.6771059468089042	-1
-1.1873789952700518	-0.1621673855428751	1.1140871143170032	-1
1.3862341544439662	-1.071517694312423	-1.0407157283181547	-1
-0.48389882738706524	-0.7772013694928177	0.4183252769005734	-1
1.0701608526078905	0.9332879279493238	-1.2986002693454726	-1
1.4200349860333281	-0.1512250111108719	2.280460870300865	1
-1.6174113339562486	-1.7733314812073682	-1.48308012969484	1
-0.2600122604328823	-0.3513570344508966	-0.6055885835952992	1
-2.022636293600411	-0.4556142977779663	-1.3903051286454853	1
-1.441782508114231	0.6216541026647151	-1.5173326556878903	1
0.5905059846984813	0.03703966446826597	-0.7541475472665505	-1
1.3876981700353177	-0.05608737514301104	0.16665023262954845	1
1.8791562465751115	-0.6489812266872304	1.8556129835231765	1
2.171009367234447	0.3090401352278874	1.244078019910794	1
0.27108001495630574	0.29689465808873333	1.6328257402403852	1
-0.501957669414186	-0.17228919844228396	-0.9111415747364618	1
-0.3029151023508613	-0.063692367259168	-0.9706229259442459	1
0.6761302637719179	1.0663931773022859	2.0994340049420046	1
0.942297413155668	-0.44508562241178773	-0.8305206004865205	-1
-1.8052659430108111	-0.6214478838782624	-0.5444973330003994	1
1.1872254994490836	1.0257094305130225	0.6136317091233796	1
-0.479498774091681	0.09331817556250634	0.5300654765308441	-1
-1.4026081227856653	-0.9602781193098016	-1.9624666507135475	1
-1.1278264346083144	1.205650727342053	1.9667032943946179	-1
0.6449693284068407	1.1462407067884923	-0.7364385950537146	-1
0.9842150160786449	0.9924370590596779	-0.9557034153089191	-1
-0.6406029115074205	0.32711413756537716	-0.884119602413319	1
1.1679191721861726	0.4814383667761183	0.7176297115289644	1
1.010030831498712	0.36159727377583617	-0.9622771059574614	-1
0.7053079545014059	-0.5749010127011334	-0.7395589430503977	-1
0.7507884355774819	1.4821615954974523	-0.916814208027129	-1
1.748848239360537	-0.5490413839710285	-0.21651593955723675	-1
0.9845198994207022	0.014018156876204587	-1.0691426153613786	-1
-1.4905365280529268	0.46704242029064735	1.904845836920304	-1
0.2685956702002963	1.0341820955449375	1.1702590205392442	1
-0.6386746009006121	1.7469281154330558	-1.427246836137542	1
-0.865260324013688	0.7175169277703916	0.7154670574903961	-1
1.5927169983893408	-0.3750407852579061	-0.2757392783642806	-1
-1.3454808504425477	0.2725747626834889	1.0037777462112627	-1
-0.7576471760999178	-0.45250407988094665	1.3822537455842172	-1
-0.7295539352996459	-0.037370724915269694	-0.6975382888085382	1
-1.1041397415035963	-0.03294305823945487	-0.8552476756184679	1
0.8164983584402147	-0.9031197909760407	2.642419212150915	1
-0.7182166918411355	-0.008713164529847578	1.0597006522112342	-1
0.616372536294317	-0.10653306758421169	0.5693448366132806	1
2.279427920280347	1.5566301039513113	1.4838611253100211	1
-1.1316163196722053	1.3713347204390935	-0.9487111400998476	1
-1.1754283574372764	-0.6050276393879277	-1.0983042463520094	1
1.1171948216112462	-0.7165614977577364	0.8404282124236957	1
-0.6739650600773015	-0.10858246155913975	0.7633024628438273	-1
1.3940884583049944	-0.19703844669649098	1.1660786647342771	1
-1.3474582844711942	-0.06804336708337745	0.42570905887434574	-1
0.7794638415598067	0.43875110190778865	0.731897612805082	1
1.3985233433239546	0.5490697416648453	2.0169934516528754	1
0.9634065648768477	-0.1335768139483221	-1.7437541992148127	-1
-1.0739607248222236	0.9523160341338783	-0.9308608032467969	1
1.2208981740097327	-0.28207940263632186	-1.0490486811344188	-1
0.38277675567933583	-0.417301753925909	0.09321794580151749	1
-0.4246823674686083	-0.32849046664954423	0.49610465079450733	-1
-1.0245071546035427	0.3395520335035705	0.34307001962794115	-1
2.3737016645020623	0.4393080309601166	1.1200794099167797	1
-0.6303254553014013	0.5972945911160119	-1.3858158225411572	1
-0.7743724639146731	0.42269227617995303	-1.2906434509492093	1
-0.7357936755329342	-0.4678619117271473	-0.20247905673562408	1
-0.559074680947418	-0.47334381815699056	-0.8931319179947885	1
-1.220031028363307	0.0593651928595285	-1.0434447309291155	1
-0.7748348315847724	0.2449744321288022	1.023986767019557	-1
1.2298373476028726	0.25612155365125877	-1.1148455495171832	-1
0.43747556633248125	0.23226346066874107	-1.198761167062306	-1
-0.6664955696867827	1.233176715206987	-0.5363633048307977	1
0.9916870488682844	0.3320752129819238	1.6120589180411664	1
1.305791714656655	-0.5537945094737196	0.550901324924758	1
1.5049959121743113	0.1262920406925841	0.8106682482697299	1
2.056066218876305	-1.0575260713169712	0.8478019166355361	1
0.709063407559229	0.9454961922541789	-0.320988496869201	-1
-0.5853955017032955	-0.9001213143485596	-0.662510280568478	1
1.1929055936256716	-0.3674681101337869	1.3567813347864084	1
-0.86525388916025	-0.8719166860341023	-0.4510150273595555	1
-1.2653054637984122	-0.3238090389923777	-1.676132255628909	1
0.47672419355560103	0.17979007956515883	-0.31772754681508775	-1
1.1017979291811262	-0.08399450642524739	-2.5675297401155133	-1
-1.5268935745564634	0.33538183237074337	-1.3443225100028249	1
-1.3561049720909664	-1.1769528984891002	-1.072157837252174	1
-2.116699330547709	-1.3058839502259403	1.3061377652564867	-1
0.4418958185409428	1.3014803125796552	-0.3502833748932184	-1
-0.7970311950539712	0.2464080416183781	1.2560213200299102	-1
0.49456126960238034	-0.021166253964538383	1.3838053876143923	1
1.7609517644842194	0.8689998070850973	0.6779827598591401	1
0.3622061243313644	0.6916787758439806	-1.173670511201124	-1
-0.8741306204799782	-0.7284971583233006	1.1442247014502271	-1
2.181915086872903	-0.31178193529423004	-2.6453628802342193	-1
-0.944673376496785	0.4651938760733795	0.39107918883769394	-1
-3.2644468263623407	0.2085603671603386	-0.9464925466678795	1
1.199354831237675	-0.06586394335504751	0.9894785278599773	1
-1.699296061470575	2.058685513802282	-1.097486457000348	1
1.3927159251237804	-0.4151475570444815	-0.6772119840216605	-1
-0.8828848467303048	-0.05305249029394604	1.23589273384232	-1
0.4786113549207922	1.0666233705681825	0.5208395641187414	1
-0.4749498417170148	-0.9942843726364351	0.7779934642064656	-1
0.386709592545295	-0.5463613454258448	-0.8676270739281078	-1
-0.691778295314895	-0.19737227689775474	0.9089414254074117	-1
-0.500829541836443	0.31034058229725026	1.426889858554505	-1
1.7731709580015373	-1.4579703524811136	-1.285959379715913	-1
1.1039796027527848	0.46458015134953956	0.614423211874512	1
-0.5376779059066006	-0.09932455783433139	-0.4654662212405054	1
2.5588129955507664	-0.5613947597705959	-1.1230908759431344	-1
-0.8518426209766352	-0.3829546027738021	0.995518572030148	-1
-0.18687560771781647	-0.21463343913132954	0.298182960647838	-1
1.6685533750532155	-0.0776787254680478	1.450311553444527	1
1.6788690839299607	-0.10693379819668203	1.148702235917775	1
-0.8501769210958484	-0.6124953550509555	-1.0424037589204596	1
-1.0471167635038763	0.051885623456714644	0.8781821108131298	-1
-0.9915847708922039	-0.9634414123620856	1.6087587913772006	-1
-0.7566232127917683	0.5624974764234691	-0.871779404458342	1
0.7857975435758308	0.5761002083963261	1.5099496841601003	1
-1.096364999321671	0.170359471023938	1.9240735878414823	-1
0.42783441450390647	0.08759397431928681	-0.8228238403127288	-1
-2.1841927801510974	0.12221636841870112	1.1159124280688644	-1
-1.9498954674108468	-0.161925417304796	1.9030923664990476	-1
0.5497643500521766	0.5211072960688831	1.4229256569125284	1
1.1084286485194488	-0.5126817818001977	-1.2485673266602537	-1
0.6113178444161376	-0.40897787013790926	-0.7102314055672045	-1
0.4717329036567338	0.4152038791867104	-0.5555291407701718	-1
1.293793404454497	0.07275555146544854	-1.007561167810631	-1
1.0215815862088662	0.05522517066410685	0.6751801060569449	1
-0.8535684617748567	0.035640260664235465	-0.8416529399820214	1
-1.0126934245792538	-0.3641404292482187	1.2757288517634657	-1
-0.5440752776817793	0.2394439487625976	0.9018235478580562	-1
2.159369626860523	-0.6319475827486466	-1.3725335047527527	-1
-0.6961959809865991	0.48769083538409586	-1.537366985735765	1
-1.3164943141014542	-0.8244928740210282	-1.637544975558599	1
-0.6217186315178813	-0.4632370451419037	-1.523838322581494	1
0.5911046248028963	0.18499562973871977	0.880056799198866	1
-1.2902378961774312	-0.5289259324333553	1.317028239994735	-1
1.2771423023450919	-0.12783975505897657	0.2731200121632274	1
-1.918434713830591	-0.4697165820797272	1.2566798292116497	-1
0.21807684049132162	0.10210000456980553	-0.41177859877043677	-1
0.44152580056750146	-0.6628744460122405	-1.0443664733166433	-1
-0.7385738314381576	1.1639587903780877	2.1532134311811175	-1
-0.9138849595119816	0.9756451131730471	-0.5715915348619153	1
0.4430319485499097	-0.2151893596500193	0.7603018237429777	1
0.843989592772534	-0.6658723783923434	1.2302905420544952	1
-1.1771114874016848	0.8650519353748454	-1.3771168671400464	1
0.3195598764297001	-0.8913779526595107	0.9059298400546117	1
-1.609896876332143	-1.0856043725607336	-2.24491148770994	1
-0.6172808674616038	0.4559869452125365	0.8274427368783539	-1
0.5164559136002085	-0.3955252013849062	0.8810839774730141	1
3.3154794436521833	1.0642273953558241	-1.5527875142816105	-1
-1.9088736627326912	-1.1745815135894584	1.8561484769603869	-1
-1.3959405365635504	-0.07539168553770581	-0.719406263117438	1
-0.6444471022736291	-0.8136461602610594	-1.156037192184877	1
1.490649589232696	-0.4285943082463576	0.3438884116188499	1
0.6578847349726236	-0.9322706008565422	-0.4292098611019513	-1
0.5901238139315514	0.09776798904928785	1.1978920299996396	1
1.8046327245564566	1.6854666035633548	-1.0917536419001137	-1
1.9324912035519426	-0.4522345366358653	0.9694492584703533	1
1.2926391944306221	-0.3475227667869099	-1.4745058649766007	-1
2.139182482681551	0.5442750183548989	1.0684961953473235	1
1.1762853265430624	0.535534181881566	0.40749145335424536	1
1.0023997121546315	0.2153331040101582	1.074753701939741	1
-1.7368634761512827	-0.7189829975533689	2.3213210825786317	-1
-0.6444317835108182	-0.17800031468091648	1.0333230541991547	-1
0.8329652741149767	0.09624784607949528	0.5378213013861506	1
0.619349424369432	-0.5535527242890018	-1.5423983077770544	-1
1.644486805573701	-0.3024471279464265	1.696612907764787	1
-1.2848333894749278	-0.22237655684911428	1.4224543646464225	-1
0.22502611924084742	-0.22067730448075218	1.1263660891837854	1
-2.3144543571466283	0.06338488274612361	0.5616056382669012	-1
0.5274416264128421	0.21999175389861836	0.44095217757313493	1
-1.9907335907318457	-0.9605115849992489	1.7766326137954636	-1
-0.8175350373093728	1.5856233054955642	1.079596531152392	-1
-0.8119385472075913	-1.094308686412362	-1.0948466863281463	1
1.7426145548133	0.07538256636507916	-1.4707246323715957	-1
-1.011423088729736	-0.061707163974743996	0.9733544556451134	-1
-1.2177361654986156	0.404523120235389	0.3896445849345823	-1
0.5203257463887683	-0.21595607800973626	-0.8282769859790611	-1
1.079865361270022	0.02851237657513927	0.5448916965264609	1
1.8274118456398503	0.14360533711014936	-0.687888591572933	-1
1.2597902420235507	0.43337491712967313	-1.209543712816069	-1
-0.8991479992259516	0.2591690621051186	0.4826977973653823	-1
-0.1427808313961389	-1.1291414803530944	-0.7395473833312456	1
-1.4388148716280633	-0.14323321852709622	-1.9363236791049545	1
0.8964333680539858	0.8638407085997304	-0.45915070072677755	-1
-1.1212887376092802	0.9660400234078419	1.6646795693103256	-1
-1.4292795359482808	-0.1503929637637349	1.4783346071737204	-1
1.163247159097927	-0.8257832458953023	2.4058827823537534	1
1.4863511402787586	-0.039081072578162596	-0.5726076672411324	-1
0.6039231713329948	-0.5981190448789	0.923125252979415	1
0.6162150719118267	0.34771973518685073	-0.5223370471582625	-1
-0.6532121454670485	-0.2758697758371108	0.1838137286301439	-1
-1.133087507588831	0.7089951943915331	1.6227283121957234	-1
1.7889979125631827	-0.35900824120451613	2.1041074234513024	1
0.14990587433953212	-0.6429164189220703	-0.5661538962211481	-1
-1.648496756566921	0.3630565869091849	1.7323738323040265	-1
-1.6324394426056688	1.212472377536011	-1.8913426193148126	1
1.2705767863897837	1.036617952761877	1.5976146332391397	1
0.9073259586743929	0.010376334601196666	-1.8140655746913368	-1
0.6802093090768826	-0.3462390160395922	-0.5009727599432912	-1
0.5294434899680933	0.14924671383418184	0.9621985833837533	1
-1.7076494967939655	0.5679599373776768	1.8649534908384189	-1
-1.0118789077363783	-0.1702595818902396	2.0055658365400837	-1
0.7501155518034529	0.25916700968821305	1.4753716429650643	1
-1.2719236990499274	-0.13099605497520406	-0.5537043874029262	1
-0.10225754640620849	0.37856569527656536	-0.4482034368614273	1
-0.41574325135678414	0.11996540629774771	1.472382811406024	-1
0.7618626093339894	-1.2621797920369946	0.8631357858484845	1
-1.0400481473152423	0.2670364331889101	1.1791272692732904	-1
-0.4996326656643069	1.3700408801889519	-1.675246475487946	1
-1.0026982876963897	-0.3194032439920952	-1.1574892300798607	1
-1.3696418060463602	-0.3123006723361418	0.5320183437054276	-1
-1.109223520286022	-0.0640028967015003	-1.8513195018550486	1
-0.9587783432092906	0.09165198790866277	1.0358912903124513	-1
1.492447017821834	0.23355626591440792	0.5305030112244021	1
1.48885666139807	-1.2112941026438957	-0.4660593979416728	-1
1.3891060720593056	-0.19852501752339818	2.1623519699101927	1
-0.8143366025795157	-0.2763454296918296	0.5315758255857728	-1
-0.6330321673233529	-0.34862310951151154	-1.6218898425364703	1
-1.5738903487437643	-0.5247350779951436	-0.5981631791210629	1
0.7892439420199789	-0.46923568456907283	0.2963900348955756	1
0.8651220106574873	0.09582715459685728	-0.29694521219247694	-1
-0.9478094737360185	0.2464092191795575	-1.6241271265384292	1
-0.7704316531117024	-0.04694168077624543	1.0496675682630112	-1
0.6385533301209418	-0.46615083208680475	0.5478410201525808	1
0.5184782906806977	-0.6459540656070593	0.8843451395585302	1
1.8167015868071181	1.1489229836953634	1.1954957271469122	1
-1.1138592441957904	0.5118122528451985	-0.17228544643801383	1
-3.103446648685729	0.536804682840452	1.6291436262672505	-1
0.4858577229385453	0.011304672750222768	-0.164918750675218	-1
-0.7488519942951221	-0.0436369800801866	0.9340537906182719	-1
-1.1637150514835644	0.3348310417986665	1.1044473004483704	-1
-1.5552772603491483	0.6233639629251992	-1.6344547953856445	1
-1.0731309729301688	0.7490973922873114	-0.6216527014465998	1
0.9744202998297369	-0.05383465824235496	1.0069616427477852	1
0.7399078948135387	-1.4230269643822482	0.7168783987122286	1
-1.6682051845929424	-0.48940366643653177	-0.9792713163573525	1
0.4758065505115978	-0.09139353038500504	-2.1405332908489005	-1
1.1475939043530763	-1.2172194571122483	1.5033051553510406	1
-0.49677452484205453	-0.3835341129733636	-1.8551577418805967	1
1.0504730446121429	0.4692711472095757	-1.0753197685348723	-1
0.920680095668157	0.08728268389718316	1.3290603895701216	1
1.4123958862492787	0.24473836223870848	-1.688686258188203	-1
-0.8708938702367701	-0.9062221217535675	-1.0328304542110032	1
0.6622817272644003	-0.5610468922233042	-1.4840478158534056	-1
1.8300764262712612	0.32176713088417497	-1.2268015542969293	-1
0.7599800137887482	-0.6996911973532749	0.5045150161662499	1
1.1701639588150248	-0.41371461884097904	1.9439060657908453	1
0.8062396451360927	0.9101427950785745	0.5208487445551595	1
-0.8019216741048125	1.0975199895925796	-0.6490633579055332	1
-0.9292960876453642	-0.15715918923730623	1.1200159682659319	-1
-1.4434909425333706	0.1893608456799837	-0.5546233988782087	1
1.9360731926622758	-0.30973975141952004	-2.2608714709355446	-1
-0.936365265944082	0.2247502845759937	1.703122630904382	-1
2.5720733130290996	0.1855539857583664	1.7425436682321567	1
-0.7646687315744989	0.21652627658940082	-1.1730253910574835	1
0.9961288410797045	-1.1442239832444079	-1.652028746761232	-1
0.8214889238608223	-1.172588414718737	1.1340012511360382	1
-1.7817155008121608	0.5234128323091565	-1.3646074490479947	1
1.2482852255521377	0.6623823092107477	-0.7321806186208729	-1
1.2267370887788187	-0.8339311927044355	0.29884240606150214	1
0.723633831739964	-0.9266286009080711	-2.036403205121253	-1
1.0028479157860772	-0.36164090609385635	0.8501097074309311	1
1.4295892073615701	-0.2844584372567699	-0.7339680914116442	-1
-0.606837482663275	-0.28624108102104506	-0.5110121280798345	1
-0.8555804821532483	1.1188594196899817	-1.0718452216229644	1
-0.7032285411852193	-0.21713291383817826	2.344073958538291	-1
0.7883183245063591	0.12577855108655772	0.32305338738464384	1
-0.7479772308103035	0.9589133258238545	-1.152663760600248	1
1.4053572342924128	0.0951400928407581	-1.6222201041826811	-1
-1.2122508575618225	-0.46077559880061913	-0.2437641396359135	1
-0.8084201348751177	-0.9143007074963247	-1.02697656433573	1
-0.732826704767044	0.3189324099154569	1.8149125885130761	-1
-2.3513767317265444	-0.4177896263561828	1.066835431782033	-1
-1.0870771594418083	-0.6912752147757921	-1.4742401362884738	1
-0.8788729634900383	0.46222336599036384	0.3423308161422892	-1
1.1244722326999026	-0.4519902590625938	-0.8128397980480018	-1
-1.9535781274737094	0.8180233761566782	1.1993605324731615	-1
0.9191232428438215	-0.2064764882482111	-0.4669749903982412	-1
-1.1327780709083224	-0.756079366560819	-0.7750016196732954	1
0.6553477600279091	-0.20467347828458685	0.7904247668631125	1
-3.1654072412247274	0.9673478006163534	2.5442367749262407	-1
1.1464205010700201	-0.03238990713617808	0.7487175724603332	1
1.6868552580099445	-1.0267200878252	-1.2274724156762775	-1
-0.554515228057838	0.060054036839980125	0.7142722083061491	-1
0.9573610033269745	-0.5535819980327088	1.5178156316215994	1
0.43736892327533755	0.2686755881478987	0.7535794792311699	1
0.9645138056923611	1.1199196556188193	-1.2973402405587005	-1
-0.42263842050384837	-1.5031622733059902	0.6110879479939322	-1
-1.4735513507104638	-0.22555758928080563	0.6926389022111646	-1
1.2041252095298476	-0.21695807773426584	1.0125821461325752	1
-0.5859691749441158	0.09698886269417135	0.8499101976341696	-1
-1.7714143441742654	0.6683795779209724	1.2213756827162023	-1
1.3658068442280158	-0.034618048092726075	2.1569061976865243	1
-2.019230780268692	0.6456681386250697	2.859638633078071	-1
0.7337469544251511	0.02525021399182443	0.8002331575561934	1
-0.8732932374075029	-0.026225629895042582	0.28410771861021217	-1
-1.819200828123948	-0.9558105622623725	0.8214655423959646	-1
0.3950030985496294	-0.17628206466686458	0.8238582190306452	1
-1.5421776333012123	0.434820576169733	1.5382015075724702	-1
0.38986936801625954	0.32911722086425677	0.8907520587693744	1
-0.7692360252963144	-0.3821152294935193	-0.5158712483470174	1
1.0286602112513412	0.3252615235240469	1.1668495687414162	1
-0.7662452908904634	0.8726010225966615	0.9048850247014802	-1
-1.3367447765760103	-0.32128422947053914	0.2736563936363016	-1
-1.5169324096371313	-0.7992238980734505	-0.960964234368787	1
1.2259105903208627	0.12557563721185117	-0.22063876129612994	-1
-0.4943713430591335	-1.3163217732781232	-0.39030401717538976	1
1.0764416187382748	0.021671178536269462	-1.5155872215087494	-1
0.195042641195749	-0.08688976642374624	0.9432854474875506	1
1.1120066551505599	0.11628528006416947	-0.8372559980357728	-1
-0.5364728813391997	1.18967340816305	-1.439858672831741	1
0.7706422396157089	-0.6489853075986447	0.7767446250923906	1
-0.7302157637198806	1.1677926916701895	-1.190508708783639	1
-1.5788673979800667	-0.2662071372332935	1.417222714066516	-1
-0.8903648047433121	0.3916497263121597	0.6007274660421689	-1
1.348390496017631	0.776719685967965	-0.8503521641131904	-1
-0.3039044467578397	0.31449706958932083	-0.3325354504728282	1
1.2810056713540259	0.5274426107698154	-2.3307692125526964	-1
1.4447142339178232	-0.09896916647005428	0.7197669763323509	1
-1.4963808949234734	-0.917435586447732	-1.6099651762869458	1
-1.683282485672116	0.638407504680957	0.9327782421413569	-1
1.8016436478650242	-1.3717725861322825	-0.5568409104671712	-1
0.5205360208885381	0.123635754574716	0.6531024710098909	1
1.262489690492435	0.23110893686222017	1.2255726639979407	1
-0.852931558951573	-0.5459069791127624	-1.5589044354836104	1
0.5638036047238729	-0.34339933930127825	-0.7711012299618055	-1
1.0058021257634344	-0.5764045793759844	-1.4562244295875983	-1
-1.1110992346936936	-0.888547813243592	0.9305232629441336	-1
1.2579872561396934	0.1679688375309855	1.0645623019769972	1
-1.114585082510132	-0.8551538509811337	2.350234193252027	-1
-0.5119800925879089	0.572239326386216	1.0299726995173732	-1
-0.66742293915489	0.636665214140351	0.6077548178226022	-1
0.44148810267340977	-0.96021730458297	-0.7678756367988463	-1
0.8378493100590902	-0.27383099170804154	1.6555705393729012	1
0.41667859317183553	-1.0079085264974708	1.7609072799431638	1
0.9289628529145266	0.6692400697730221	-1.5462484180022353	-1
3.1301586800021988	-2.6956678158713197	1.9474286172762227	1
-0.7185588854403802	0.39302637475072927	-0.6070465237584264	1
0.6412350544021612	0.39828475047497364	-1.2966411152895647	-1
-1.820782472982943	0.6117192055508748	0.4979491008527993	-1
1.2006922825398683	0.5249574832938795	0.865426529819268	1
1.2040623799902885	2.250665553785493	-0.563888979512528	-1
1.6377524464700122	-1.414704174997274	1.8613219765494176	1
-0.8835870506899606	-0.7491461043384537	-1.985855840863377	1
1.7842123847492268	0.972078281165196	0.6876640377866666	1
1.4762004585432247	-0.5118176246054797	-0.8410118131859036	-1
1.5405416771424827	-1.0153215399702766	0.627932281695758	1
0.8678144760076791	0.8575661352381704	-1.056593914769677	-1
0.4286129211200337	0.7395766091701259	-2.2168366925689504	-1
-0.5925568057857006	0.267615520990692	1.1813518765369941	-1
-2.955009053818394	-1.3192273337433185	1.108693249926986	-1
1.848824290701892	1.2788750850396382	-1.717904489557048	-1
-1.4914215480719704	0.13417625572289676	-0.9197106705007593	1
-1.2229471122639786	-0.4821092939688548	-0.3302793415159906	1
0.597235786736609	-0.15054047157426476	-0.9841319458552482	-1
2.0918534599042298	-0.24619660507925595	-3.0380426840991674	-1
-0.7823456060456399	-0.5091850475125972	-1.4352774140401956	1
0.8945967761503852	-0.39115601778000936	-1.2611896281077604	-1
0.8756067595129957	-0.0043395516506004725	0.558906315502154	1
0.36685411438484766	0.9482224292258349	0.9171426162533494	1
-1.6624028316483876	-1.471226126706382	1.0079422991938425	-1
-0.8615980761955471	-1.2648546542995822	-1.1359042624576765	1
2.2109632018622043	0.9410891369744642	-1.2966256736423452	-1
-1.157335149470278	-0.27309321944438225	0.46614858190288505	-1
0.9158640640362339	-0.5636207180282264	1.268502706770391	1
-0.7656323841918802	-0.08956499620598003	0.4167698705531773	-1
-1.1469817055614306	-0.4801615485105718	1.063656425786284	-1
0.7886058633058567	0.4702358406137884	1.884633928392808	1
-2.605381337404287	0.17487613907494182	-1.422810285777775	1
0.7272001415985564	-1.101859730777358	1.1672587843929738	1
-0.9440811194334248	0.21145104339717125	-0.7735302545692022	1
-1.3983743714358845	0.09988071826447764	-0.47751646389251057	1
-0.6080449057863806	-1.163843514339919	-0.6185426991254858	1
-0.9603809200241247	0.26260608184878387	-1.2114711740798008	1
0.49328102488414244	-0.3325924823187058	-0.7515979890967481	-1
-1.2916935789360187	-0.16405693236493385	-1.2033752351131968	1
-0.6792307464073355	0.007245471183473834	-1.0921909450475118	1
-1.5025222628626707	0.3661422429514042	0.5180002325931037	-1
-0.8037669337981053	0.549402253470621	1.055617610713501	-1
0.822816265354239	-0.041486497396900954	0.3680695669573797	1
-0.9990537732246028	0.345603776296877	1.4896131756203401	-1
2.536505981041884	-0.6242867473478299	1.8135446481354296	1
1.2218810705375622	-0.19906910450673804	0.3263696244512777	1
0.5815688743946491	-0.5275694059447612	0.22536475123916855	1
-0.6008079908993118	1.2677691997340568	-0.9243883529735465	1
1.0768535535748067	0.5543847223864016	1.0695041674670174	1
-1.336535362115206	0.8808339291944904	1.1458146497122008	-1
0.9769702348262757	-0.5570653295716652	0.4119151282830795	1
-1.8134082020774198	-0.09947932572057958	-1.5737079579103295	1
-0.853842257490595	2.10146045954602	0.6221050776117589	-1
-1.9364174485922723	0.33670306298027197	-0.8107235148943702	1
-0.8981767857317152	1.6236551786169795	1.1151737114257796	-1
-1.0526742165159173	0.8478625698511066	-1.5675012003947395	1
1.7981275635184322	0.861476737875231	-0.8159341108342636	-1
1.5991554298543096	0.7480407252370833	1.6881179205649168	1
1.3350016981391069	0.16313116328248237	1.5864698814392748	1
-1.5813825318746413	1.699521498577449	-1.6210233110107677	1
-0.6030945302264693	0.050176376238153145	1.089353553918964	-1
-0.5871672758989048	-0.6804666455592734	0.8210248542260841	-1
-1.530642821399384	-0.12388683022841593	1.1482065018381755	-1
-2.6260497728463825	0.3608541442842231	1.0592907910217482	-1
-0.6926472147769875	0.16197466473631406	-1.5898023144199942	1
0.8123833544208983	-0.20165997062958385	0.7905654056333782	1
-0.8331887570147738	-1.486826835727696	-0.5373370347674155	1
-1.228538676743962	-0.06549690455417395	-1.8700264750382536	1
-0.7709735753481035	1.0262660219022623	-0.8486052668039696	1
0.5828857392883057	0.44746289705212444	-0.24261066008739077	-1
-0.9556878882089538	0.6822002165971786	-0.4621403460755943	1
0.7757000635403994	-0.3012283480365506	1.6653436779517357	1
0.9706054152267043	-0.10738618555024362	-1.5482212787193774	-1
0.5543422747791953	-1.0294580593921627	0.4942800505557788	1
-1.0420618480983805	1.1200976455895226	0.48825801459477636	-1
-0.7793336601013552	0.6209980174925583	0.7275802813030158	-1
-0.670627739942638	0.04326477711945401	-0.5043991107667944	1
0.9292830188898176	-1.3463530869451639	-0.586148501093525	-1
2.568188894082142	0.2492513777072617	0.8008250610169112	1
-0.5637500845119244	0.5604139433682852	-0.6105180730461582	1
-1.317038237720838	0.3885928511825165	0.2421845944177239	-1
-0.3791161854699108	-0.5164885347699749	-1.6516471426018504	1
1.06688781005119	-0.25888156824134084	0.9320329409124187	1
-0.6679410429380945	-0.5895049418821214	0.8149486008266988	-1
-1.9246598805561013	1.257193886631916	2.967101107283285	-1
-1.3422755661196564	0.7261250556368626	0.5946702887013834	-1
-1.5259112353961655	0.23744338903049111	1.755913005019365	-1
-0.7985662948911001	-0.7733335961261623	2.1264722370783002	-1
0.8563217381383296	0.7141877542804318	-1.2050962911526155	-1
-0.5928923848708092	0.5244003571954494	0.6654897887056623	-1
-1.1089014919875266	1.2379286659333133	-1.140222653740581	1
2.731857560170071	-0.785818626272636	-0.6839127805213528	-1
-0.4318763390419647	0.8835129679940679	-1.300630129352458	1
-0.3315315122502773	-0.7667827459648802	-2.3293275868157997	1
-0.8537657018700068	0.9027982917760693	1.3541976736280468	-1
-1.8507809000608486	-0.0863856395454344	0.49970011093851974	-1
0.8779350784035576	0.11026511151000169	-0.7304696530320812	-1
1.3070144538834487	-0.6338617161561304	1.6051467061617357	1
-1.081443560791166	-0.8885761726619342	-1.7300494857194284	1
0.3727054321703303	1.180842132303222	-3.3818249410398895	-1
1.6136929524594943	-0.6664849486828313	1.3841898898650489	1
-0.8708585194247378	-1.2356383825738586	0.9383547727532632	-1
-0.751627600072606	0.6840075400604771	0.6184676147953297	-1
-0.3715253281662475	0.1075364433628689	-0.48868306986249915	1
0.6921652052191255	0.45569078306793853	0.8099886884182435	1
0.7211881264194757	-1.3072985413494984	1.9048278354320485	1
0.5017578081865908	0.4403384383682144	0.7871279444290951	1
1.1121526612956236	-0.04937497553312631	0.3103782739861297	1
-2.0470277443410874	2.873602705015128	-1.567537244865417	1
1.2564958229556435	-0.4867412514874181	-0.8615113360990148	-1
1.5660863048490052	0.22263028534247967	1.912404565579496	1
1.330674515709438	0.2718108578695703	0.5608108080858416	1
-1.3996516516050868	-1.2223974463531624	-0.8402511942190857	1
-0.926052649146168	0.46376290536285336	-0.6648774094916556	1
0.8231606908051085	0.8064656857624226	0.5517276442203123	1
0.34524723206201413	0.6248234169791771	0.5360230544325727	1
0.7432116451021656	0.13703889502226063	0.48533253091818673	1
2.383772094156988	1.2494894552543951	-1.8775988673682502	-1
1.2976526322802724	-0.24236561087437825	-1.0509912488983322	-1
-0.6278519996794002	0.0349634144346824	0.8007097308634537	-1
-0.8307077218736737	-0.1111859946179143	0.6505392141811059	-1
-0.6634888007640539	-1.2091858581331625	-1.5529228210390063	1
-0.2759884879835478	0.3536520431032587	-0.4270335737989882	1
-0.9527340022055008	0.9698371547997456	1.4322814697392512	-1
0.9322852420800567	0.0904705602262112	0.7523190963903357	1
-1.1333634032829085	-0.44091748814873766	1.3944911825622193	-1
-1.0777071525033792	-0.16550762894726515	-1.04828952688282	1
0.7120763055465692	-0.40705501264651056	-0.6134798106465947	-1
-1.2964223701690292	1.441029658418965	-1.6994604691367183	1
-0.7997117669499741	0.15783702529326765	2.209538843586957	-1
0.6469974566848729	1.0636814141527315	1.1819748365769742	1
-1.5847929151309421	-1.566147366352189	0.8786554267008541	-1
-1.4419084611678845	0.17389557045496373	1.0813177452808436	-1
0.6683425881088645	0.8164068136580532	-1.0066596427941672	-1
0.4646058072242779	-0.9217900836677146	-1.2431276592240628	-1
0.5204318270472058	-0.49765318605220976	-0.6093135880741081	-1
1.992429005596171	-0.4973827014503705	1.9379739295720602	1
-0.9619507827710835	1.3483224930172186	-0.8166360321327006	1
0.8557780029505346	-1.0848249708998772	-1.0803938756995546	-1
0.7364468419383734	-0.7933570087419045	1.9608821555110096	1
1.5630801844309359	1.1488255054450827	-1.70595623699757	-1
1.0000224392548516	-1.364043375851705	1.5059565843444276	1
0.44648212648188923	-0.7883780542349741	0.30475198937582476	1
0.8714901037095553	0.6609549625210001	-0.5194655843918254	-1
-1.0402348775588715	-0.26344912369245344	-1.1720370618800344	1
0.35397934917694457	1.0254066066657006	-1.8897475105456145	-1
0.83194959610843	0.6640981323150487	-1.4321642928731313	-1
0.8143145085779737	-0.3179439945855348	0.890946733137601	1
1.8895371076973193	-1.0643008660922502	1.9508983532062667	1
0.4875594949264167	0.9150599182121848	-0.30435164356130984	-1
0.5054780566895714	-1.075599535079065	0.5886226931251284	1
-3.414265129736931	-0.2988712156248695	-1.3583264672609165	1
-0.5910096471531259	-0.6690774237181409	-1.2926829099283368	1
1.0821212288914053	0.7962627837787936	-2.6260144203649993	-1
0.42005551651770423	-0.7664055361614317	-0.80059757309883	-1
-0.3118861979647023	-1.1498919200069155	-0.8316090720805809	1
-1.6680022210944803	-0.4307402792405789	-0.8840705582997852	1
0.6155818972060977	0.11638481840562295	0.6480538194607239	1
-0.7733351208340375	-0.46303207605043883	-0.5735070897768075	1
1.8680680233987923	-0.1442400024315167	0.9696811619738501	1
-0.28463070785300965	-0.6221714976103121	-0.2844147587338378	1
-1.1155826913411473	0.5066637002302048	-1.3107970590160316	1
-0.8136377357605946	0.6187805669881403	0.5355130614473452	-1
-0.778561360093923	0.06522952355174141	0.3913710477879487	-1
-0.4084199557198728	-0.526497085619688	0.5622282904561313	-1
-0.4452117590835424	-0.7050846913951815	0.25814738184019437	-1
1.2990511451325988	0.3414799442583457	-0.6712272490497184	-1
-1.0973437178582703	0.4581853184601632	-0.8831573315228338	1
1.9911367422712285	-0.6482051487912968	-2.160774329865513	-1
1.1794350361675492	0.6388189759577351	-0.8870185734530274	-1
-1.0838531044484827	0.29522829722003324	0.978413240947285	-1
2.309076400348952	0.7510041275977504	1.0321185990488906	1
-1.0204309277630963	-0.1238321718017453	-0.7150483896731616	1
-1.4369872366490377	0.36721846304126343	-0.47787771474893403	1
-0.9045782030142978	0.8618873163683911	-1.7225555669941905	1
-1.7836188473155792	0.2020244305935895	0.5130772073710772	-1
1.0128367191037033	1.0824103221953711	1.9141332849644954	1
1.6981391907318542	0.8898882099994576	1.4784714806182944	1
0.36036661472745435	0.7985789661874847	0.26032082339383733	1
0.8354330265541716	-1.0356091083145507	1.7423322537452761	1
-1.0540692296857903	1.0290387256847007	-0.7318694837672727	1
-1.5261375589311614	-0.7993263788168434	0.7926527287013407	-1
-0.8462287752270066	-0.23226399699568834	1.4725865465808132	-1
-0.8930706266168007	-0.484856072806398	0.9903607034700215	-1
-0.5702942776787452	0.45248458844106887	2.0266400586434887	-1
0.3536124786758573	-0.6688213950691608	-1.1729413108256932	-1
1.300578845505339	0.742672784114599	1.4339181102476959	1
-0.7126335877830474	-1.2247494242794688	-1.8544244188395238	1
-0.21142490277933318	-0.18991842913009152	1.5557371860278821	-1
1.6848868737154095	-0.09278642058890368	0.9325048371449012	1
0.7992126074669543	0.0931026281150602	0.2786385269643697	1
-1.725093448809114	-0.5703895607268593	-0.7541920416821257	1
1.2072286669213643	-0.9464341495720723	0.938685261056446	1
-0.5731895078341889	-0.7916391935308611	-1.6446681061846928	1
-1.5538335798879335	-1.1328464802507383	1.2747039785209386	-1
-0.26460792687060275	-0.3065618892430825	-0.8123798718390116	1
-1.0593746101242878	-0.3035501087742891	1.2318272034774718	-1
0.478010358914439	-1.0810115795716206	1.3597211237690439	1
-1.62792789375897	-0.719724102251307	-2.102850211300348	1
-0.4686387854612273	0.23300459952177976	0.43434362841733326	-1
1.0435236765370404	-0.0614003216978398	0.9295069131922828	1
