0.33160662410383357	0.5002910390228255	0.9730748795418768	1
-0.4532374160443054	0.5235118241177312	0.2858957190260025	1
0.6231494450985984	-1.6629241665328536	-0.5896208046204978	1
-0.210075575561156	-1.0327784320712028	0.31988070602902474	-1
0.6913262966933742	-0.27131254578274805	0.5007753193683551	-1
0.007092033653183568	-2.1660840952738	1.1859660983623395	-1
1.031423247302731	-0.655599254998833	1.0176137303569033	-1
1.4674278613185354	-1.8647139007701157	1.0959372235801155	-1
0.4619263360439321	-0.7159496493934189	1.3749185204136274	-1
0.10048748828781612	-0.989358699942311	-0.5900287245380889	1
0.7118968675346509	-0.6936172038382331	-1.2706962549160155	1
0.5989398546274534	0.974565217019097	-0.5833401108494622	-1
0.9330870651509815	0.9922393820366342	0.34947452159830616	1
-0.17758813152544053	-0.9111608279861391	-0.5098282332759244	1
-0.5143533424442537	2.939474166356603	-3.1632611743586967	-1
-0.24863587332139614	0.8267506803707031	1.0114444500278839	1
0.9913585318961676	-0.501110824684561	-0.5218553935674428	1
0.10009289250168663	0.6675998494650037	1.0029869480068039	1
-1.2728443369306883	1.2850072439696283	0.9026589123191104	1
1.0039783109772695	-0.9103991384865525	-1.242234409225244	1
0.07031383211665328	-0.7596838558848984	-1.351210150502753	1
-0.08371886705630402	1.233045462475226	0.9543170578749922	1
-0.18292779760873826	0.380689483359266	-0.7817437975403175	-1
-0.1713855340146614	-1.6700382265777938	1.187215742656007	-1
0.1039111847654325	-1.3642797655432286	-2.6567453994245804	1
-0.2902789508794188	0.9431122279634543	1.3952193954677377	1
-1.003886735062442	-1.2317934436046598	0.6409448029088197	-1
0.3107210992998979	0.6736580226686644	-0.6413693529763453	-1
0.41434369788068903	0.750729410945304	2.1337912301364645	1
-0.16843498246132585	2.243216380083587	-0.7428544024714703	-1
0.5272985446445885	0.8332004489680664	-1.2191282447687153	-1
-0.6053227422197553	0.4405009805454556	0.2622334027250598	1
0.21811228747386374	0.96911328756968	-1.291871264870763	-1
0.34390945782059135	-0.9307390955175016	-1.3120476888366586	1
0.18832670262344064	-0.7957542279942482	-1.736253275373072	1
-0.6381449371445685	0.9425561154084786	1.722244124935489	1
-0.38617034706496717	1.9675034869082533	-1.5030275194117793	-1
0.5921294492825846	-1.2140164086103293	0.7692930197064083	-1
-0.2011078507413599	2.6004261057250964	2.719447910364917	1
-0.28911205966081394	0.48999230256531107	-0.9157562698998524	-1
-0.5682993252241912	-0.8015448049664539	0.7401141252775307	-1
-0.022062367980260306	-0.8271578660573731	0.7589813207881579	-1
-0.5234352758178074	-1.7357574451034297	1.186445152002709	-1
0.0053230986257612675	1.286709811647548	0.640794904162511	1
-0.4312707720225807	-0.8261555708264177	-1.030782406955939	1
-0.014864209480311636	-0.6151703148551769	-0.796996594908321	1
1.1210608368841246	0.8054066486705735	0.674044256279116	1
-0.5939173364941739	-1.3358920164301624	0.6096567707801255	-1
-1.9636252917744212	-2.012292347871901	2.0367695353099298	-1
0.0014165223814638478	-0.7122411008761966	-1.1030870040701246	1
0.2472074049230988	-0.36561993617813426	-1.0974443080219807	1
0.050627357627426324	-0.17728036826938476	0.8588910908022573	-1
-0.5703141490128283	-1.6808821370547764	-1.112067956303827	1
0.26545697313165567	1.429251740992282	-1.4564646535343986	-1
0.6766328764266969	0.4198858632723675	-0.6024727994076864	-1
0.0005322209779623443	-0.6216282262250781	0.7603315974753617	-1
-0.7679931065948589	-1.0360332730832824	-0.8540382609426059	1
0.10531726113744211	-0.49272328583863567	1.1262330322396872	-1
0.5882135670816644	-0.985869751814121	-0.9590367950924179	1
-0.43066776663793066	-1.1280442613556525	1.093862653560668	-1
0.5996565071920659	-0.5078145236741167	-1.0495638295352452	1
0.8564476015867163	-0.5668442152138902	-1.2229329241333944	1
-0.3051837521594195	-0.688494421729423	1.2365299983234772	-1
2.2288537965783384	0.9137663387586656	-1.9905056966157404	-1
0.2976135268433683	-1.3520697330708729	2.5941511035890112	-1
-0.15868107058611103	-1.2721781825023804	-1.0334636388497076	1
1.6050065149899626	-0.8741594670823358	-1.704854826728567	1
0.4629252704541125	-1.2611569630831967	1.5091022179510625	-1
-1.1831392376737244	1.2403639121127383	-1.6922533063018765	-1
-1.283997323376739	-1.4811327966959293	-1.0622692457416012	1
-0.4932783673449242	1.4380500149453852	1.0679307579505792	1
-0.1152748948779499	-0.8028504792095942	1.601683726938664	-1
-0.0701220313827842	-1.0616651953489358	0.636673576725704	-1
1.3061666720025182	-0.7317675387287765	-0.5226866529894945	1
-0.13574117142871855	0.949853488195542	2.0889522537364957	1
0.2713337850771591	-1.6392616339824828	2.103026355170506	-1
-0.5422161725414574	1.359398309790125	0.8457170837914056	1
1.731195078376289	3.423895520465705	1.7980545212714034	1
0.40145130614879637	-1.0307509119585474	1.006258112997946	-1
-0.0054624018832593125	1.402256978595123	-1.7590441491766793	-1
-0.33548637781467083	0.6333748953378886	-1.1338650734060982	-1
0.6983201542288375	1.0768476247800869	-0.9617472263053837	-1
-0.885452650580585	-1.0567511229793687	-1.3173720034032548	1
0.2869096429674168	-1.093380195749585	-0.9293551979523749	1
0.37111085936267757	-1.0925861553440486	1.172179621253096	-1
-1.045434363016005	-2.0277043819874914	1.431780063290778	-1
-0.056385068323838314	-0.835770068768217	-1.5525748872180323	1
0.9248199189878012	-1.7690667798583024	2.1586348678807994	-1
-0.8500498483849799	-0.683063987524847	-0.603071300079707	1
-0.03725100297407887	0.8995370261145449	-0.7208806834610361	-1
-0.4160059958912062	1.3245576164110602	-1.0232975044672816	-1
0.10456920457059424	2.3057106457391994	-2.6103347311180913	-1
-0.2545045474187828	3.565227468114121	2.105247981001318	1
0.6776661500518403	1.5782842787715028	0.6917223211062319	1
-0.49504889083603154	0.6123770481518936	0.43593273176283664	1
0.3509314408412082	-0.7054776621245075	-0.4231218879015688	1
-0.5478478084430151	0.8661805160897009	-1.8774905834663171	-1
0.3941588718514446	0.4906660470557932	-0.9453542520471074	-1
0.6978617187880414	-0.6088647216952723	-0.6363891775328514	1
0.47257795699413824	-0.9323073289326934	1.352166791686533	-1
0.5589719629200677	0.6853248840871632	0.7054197841179987	1
-0.5812418590004446	1.3220164616573158	0.47136409240237154	1
0.17296719018917028	1.2531871055711497	-0.84527764184033	-1
-0.41899006163750246	2.0126559058982436	1.0548409548303355	1
-0.41645367904121394	0.6607811579653987	-1.1011663161906091	-1
-0.35443371458693407	0.8783226624259882	1.4390802681290156	1
0.0709963925438162	1.2004527825075038	1.04639960042141	1
2.052951711002779	1.9667669045917147	-0.9558938616759419	-1
0.2401833174642059	-0.9382057991130546	-0.5037362447105678	1
0.321122631899628	1.4141752459567833	-1.2661099674012313	-1
0.33815308815108175	1.2234756164213807	0.09341059983748086	1
-1.52265020789399	-1.5061586105425873	1.2758969679936591	-1
0.2599066954326412	-0.44607688814077373	-1.302340054703938	1
0.7273720019047284	-0.935360026076555	0.659805644306807	-1
0.5155372061438307	-0.3693172394028455	-1.6980017588488954	1
-0.2114174605389289	-0.34962546107783293	0.5348644509527478	-1
-0.5337485260352011	-0.5998908544053744	-1.087719884150843	1
0.6632036600042892	-0.768329978413117	-0.5014716175094327	1
0.21021703128336855	0.3500997702371941	-0.8271352753596795	-1
0.08087231404404296	0.7093892808694254	1.5097271776305439	1
-1.4329810613914988	-0.7875455824970429	0.8822295915464419	-1
1.0470125592989095	-0.3515666667562808	-0.6859702365527098	1
-0.8144068058562516	-1.254055707260148	-1.5563920904177402	1
-0.020923359543176232	-2.268446060179073	-1.0167420117238746	1
0.3176487557159112	-1.483749976202047	1.1693728471411793	-1
-0.7433538567154652	-0.8002320367662683	0.8116974657443452	-1
0.9322077976930295	3.589946581424503	1.4215178202117251	1
0.5748753110115967	-0.2664387067527373	-1.5255376815207626	1
0.39339028297266176	0.2869883008462417	-0.42829647007206423	-1
-0.7803057900889492	0.780547637285288	0.9691262411137479	1
0.04249685083798355	-1.1989964948940188	-1.5725102180093509	1
0.4561882824156731	-0.266686563537339	0.3319174060897583	-1
0.4234939664543456	-0.6016999641788958	-1.3396330142444297	1
-0.16093114391647595	0.3043044526275868	0.866436014280708	1
-0.3818323537990983	-1.0102528332806504	0.8648216997106999	-1
-0.6545638440148782	1.2024055605941715	-1.344131910995563	-1
-0.31056034171898717	1.211324526298545	-0.4225947808940954	-1
-0.12222185038167574	0.7871654238121082	1.102938499741271	1
0.08201564935114031	-0.8770184628777558	-0.2294149720155595	1
1.3918679645669494	-0.7959837802248863	1.4370768955294455	-1
-0.41032932645153913	0.5436313538178682	0.9747143117560704	1
-0.5039078533303475	-0.9003379413963597	1.8822927343863882	-1
0.5797389941417439	-0.5419116166762211	-1.7223969021491938	1
0.7082611646025796	0.1092189207364018	0.5666039777531965	1
-0.15675132349280718	-1.8015382771637176	-1.0725480907517064	1
1.331932165702784	1.5995822871161418	-2.2771073367561074	-1
-0.5891605810544794	-1.0630072387659106	-0.4445256847542192	1
1.0251836166903499	0.842786536704332	-0.38144258179054025	-1
0.6737033141893122	1.1423951443378741	-0.9862751362953746	-1
-0.8069208522826281	2.1811278313252385	-0.9943540931476293	-1
0.5042179770980073	-1.5656711455567918	-0.8351352289545857	1
-0.4183891012001918	-1.3601439032404925	1.1723660507587421	-1
0.22034002731631824	-0.7223041337628026	-0.3615422995397174	1
-0.21220279457518448	-0.8313367087706598	0.8290289151992891	-1
0.10518129302481713	0.3301291201616733	-0.8838846285596758	-1
0.8972284736307394	-1.06167749088032	-0.3433728763067803	1
-0.802210581356519	0.335805143345168	0.9227634312233716	1
0.47814981150380326	0.603551081129547	0.5443194243156164	1
-0.3381599700133203	-0.8296787412433171	0.7418191114318302	-1
-0.8390638439088601	1.4097384852300607	1.8001937556485486	1
0.29766999867418587	-0.7762270316797286	-2.0330189336963684	1
-0.20679066806831392	-0.8857416137868084	0.6498261872455987	-1
-1.578489397986176	1.5752391384195659	1.3530929714016102	1
0.28006411203436826	0.34304906299869686	0.880131047327497	1
0.5675134706182441	0.30145921255771346	0.15510782297532036	1
-0.3119844812624367	-0.9709951889022472	-0.6705830049066149	1
0.11178260581957541	-1.1448066125692982	0.5404702451364158	-1
-1.6842532924989355	0.9236281111527362	0.6450181953236164	1
-0.6048480830715005	1.8565077520757491	1.1773892312132068	1
0.7142338865233089	-0.7885402973025788	-0.9508116560351719	1
0.9134783701833	-0.7588707218028095	-0.8933450563736407	1
1.041520130216818	-1.1255253522901834	-0.9857102264444438	1
1.3574581935912058	1.0748403504921926	1.4078074979319029	1
-0.08939967887258622	0.7351457712732956	0.35507035215447413	1
1.3182875566719947	1.4846971570758545	-0.37570857320449697	-1
-1.6496681209680324	2.5816512178535613	2.516991968670129	1
-1.643281981758503	1.3051516627389366	-0.6981805849399862	-1
0.6648578851960674	1.102527396356768	0.3508825438741062	1
0.09969172488731087	-0.9705047543645017	1.803462583696634	-1
0.23702862444780703	-1.2236021511528592	-1.1000395469855038	1
0.6367016506811758	-0.6299658283779676	1.0290738761631504	-1
0.5948848717025452	-1.2417039323656556	0.9827414428275204	-1
-0.10641965328820685	-0.8169914625045469	-0.5768903436397917	1
-0.7816111674304006	-1.1472017612554606	2.555083830573607	-1
-0.2626687521056964	-1.179042669222261	0.6086585255809271	-1
0.36606743877900355	-1.4697832163047955	0.12116390376360378	-1
-0.40732502319661645	1.161806456399438	1.4505219357709391	1
1.6020803699375765	-0.9946152332333617	2.2513179803407266	-1
0.32321491339729636	0.26925124100441616	-0.6193233026446769	-1
0.10203288356729165	-0.9234299444643639	-0.4326253328093329	1
-0.059119821903309625	-0.7536078391894547	0.365799592767866	-1
0.011302599306512002	1.0637723285943927	2.112242349829079	1
0.29721370733699426	-0.5057746392335705	0.36429134906859173	-1
-0.42688164289535946	-0.7397912100462453	1.131450223224318	-1
0.11335372248098224	-1.9298799258234078	-2.027807640581041	1
-0.6635714096640746	-1.333526375829075	-1.0137985454236556	1
0.9428980052351126	-1.2717221370043374	-1.4244188632687567	1
0.8919863879175915	1.4004467777709109	1.1990652790482061	1
-0.8566878261797635	1.0207202364628847	-1.0781161563074906	-1
0.13215411282624767	-1.672067513421895	1.6315949537976702	-1
-0.9092236993788956	-0.6707340641150423	-0.9464772376358144	1
0.1545970941702371	0.3738552374035614	0.7979665485435734	1
0.6219514967671423	-0.4200720002847853	0.7597377979042255	-1
0.3817647423333359	0.32634490335883015	0.7598058070727394	1
0.09400451182274419	-1.0219670773427696	1.572517536967256	-1
0.4034149806017606	-0.6954273282640401	-1.7063731690730033	1
0.308226052428598	-1.2420444841277187	-0.8493016427528495	1
-0.10247110080730787	0.21664505098213754	-1.103683208918311	-1
0.1417451095773114	1.1747963488164592	0.7175229707100486	1
0.2758471080581671	-1.1035023517965654	-0.6205249729700988	1
0.11114545348220606	-0.4668271935184172	-0.9248115316675737	1
-0.48791552686843864	-1.065914660521662	1.2256674739101736	-1
0.3877160060654344	-1.2371824403583327	1.370985411867797	-1
-0.8576754698459005	-1.6722569311121895	-1.0175211470798133	1
-0.46086808716784033	0.7516699315364518	0.5577165334282099	1
0.21135973327797003	-2.3001598659840123	0.6262096648152693	-1
0.026379449803759523	1.6674834503800469	-1.4807180343251638	-1
0.19753605072641528	0.9054888499785881	0.6434536018272277	1
0.22638562361993156	-0.3981056331908311	1.5156167396027702	-1
-0.3868562239587159	0.6136533846747168	-1.3111197465817588	-1
0.29683142057682843	-1.114356421902386	-0.7125098707907482	1
-0.12931057187655218	0.7518381176124296	-1.2126633430428106	-1
1.1973274080991227	-0.5635696508924397	-0.6982525746439415	1
0.35419809184015116	-1.9462868137806275	1.3060164832641015	-1
0.4870758369235149	-1.4997138617077124	0.5022548799189773	-1
-0.9441235602420526	-0.6032857679400535	-1.1914326374770348	1
-0.07896255837141683	0.8170311806079529	0.8027099151181832	1
-0.09756100358084063	-0.9920374938726402	1.7549954621910695	-1
-0.180372273472226	-0.6535064595553902	1.3139989636448082	-1
0.6402075738236934	-1.5147908436104889	-1.3246107343253728	1
-0.5080247873627562	-1.0364116177686675	-0.8064458895364404	1
-0.6880856433610161	1.7031220598122463	2.1846339167283455	1
0.4752152575978934	0.5544454585900431	0.3359832725812253	1
-0.8806438286890905	0.5440630858053028	0.4435441094241248	1
-1.2055568176855358	-2.3392479080942854	1.502800735112807	-1
0.1124492034249844	-1.358838052576328	1.1987766800629092	-1
-0.3399463745664598	1.3613175879386525	0.9887109981942142	1
0.0542478438459061	-1.084362707012084	-0.7756389377665089	1
-0.2951141372029189	0.3485400190680211	0.408330523299559	1
-0.3850696582737809	0.3693727473328161	-1.1187101620013271	-1
-0.21982992851720073	0.9844098244611212	-1.4150877144293041	-1
-0.16702958468001242	0.8207910619472236	-1.4727663637461526	-1
0.357763158066956	-1.9546774111957632	0.8302109425155982	-1
0.06680812895028604	0.34489340331271495	0.5531675700495259	1
0.41694718750208914	-0.738257046184042	0.9014403742640029	-1
-0.280608232366949	0.7562720682606657	0.8308004054346221	1
0.870706025223942	1.3230306924945774	1.946434257125887	1
0.3881579516723803	1.0100245806085792	0.9192959044129978	1
-1.2178336662045148	-2.0036118320518277	-1.2134715126112336	1
-0.9944913342058355	-0.8995223465731416	1.4518033602936118	-1
0.23161395405890942	-0.9997026270370135	0.5967509749567654	-1
-0.1601306613871264	-0.7783012541466465	0.685220244498771	-1
0.28985267017611777	-1.2257334593133726	-1.3884605319427081	1
-0.20721152201324544	-0.392261587375631	0.5089960270415955	-1
-0.32799893957642773	0.8891832387134332	-1.5913325810114918	-1
0.07418582592709949	0.6661289482680737	0.8199398240964794	1
-0.8362201944161172	-1.1966970611675634	1.970937663584783	-1
0.04643983245190653	-1.317850755702321	-1.6912157409105435	1
1.0360628965924499	2.421946380316509	-2.2308463389270012	-1
1.1212503453161509	1.0880304232733695	1.2537581016049526	1
0.11784051499021608	0.6788690791453096	-0.9712701086641099	-1
0.5679904027323671	1.4775862476682315	-1.046901568903836	-1
-0.6583608494572063	-2.2980022490676797	0.919809614774097	-1
0.13149720035417306	-0.43032802364220785	1.025358008152684	-1
0.9679067871130137	-1.4478618745312402	-1.1792087610689468	1
-1.7770428882450882	-1.114419665998351	1.5192572738611194	-1
-0.33201388121459874	1.5560012066213882	-0.5942573794584278	-1
1.700725878412126	0.515565998903213	-1.9191825058915548	-1
-1.3670225671558986	2.350148135016852	0.9744365963814763	1
0.18960240492131344	0.5652245315176884	-0.5666249568803643	-1
1.1342315004283345	1.4205242451024196	-1.100811129524426	-1
-0.6545365553073813	0.9698418541560213	-0.4960334691092368	-1
0.0007336570998411848	-0.5144296799020578	-0.9606824680809138	1
0.6317535249748939	3.3552915828613914	2.187209872186099	1
0.4039429809875934	0.49327023249506224	0.5961882147982062	1
0.24879456022067364	0.7935075781169385	1.253107141502642	1
0.6332582445599202	1.0416210327660758	0.7162640401404015	1
-1.048358025031091	1.4398056384815938	-0.7581185884913431	-1
-0.6344309950095945	-1.187886059924508	-0.886100514122347	1
-0.7201907916200745	0.6580698837246399	-0.4838781232324801	-1
0.9629560179002334	-1.4125218124535643	0.7277687175544046	-1
0.07387359671251327	1.151573711418749	0.45247869400788804	1
0.37320234391659596	0.9918335615466362	-0.6344304181752427	-1
-0.046434667161134965	-1.0819059915555251	1.3576470417799515	-1
-1.1657489043086384	1.429135092534365	-0.6710204522387513	-1
-1.2412408807350188	-1.051147384832103	0.6684268005173715	-1
0.038528196317544915	0.7501407978470295	0.7331167142201874	1
-0.9783466281897698	1.3089989979477306	-0.5913004337486183	-1
0.7021885763942395	-0.7119024820764406	-0.8014868228137583	1
-1.7643801881865386	-0.9771312563713228	-0.5458128579789654	1
-0.8234185376112341	-1.7576154005336107	-0.5449310054106588	1
-1.0856835958611377	-0.5090185788300681	-1.6078395521921582	1
0.15025469312828685	0.3094009168209013	-0.3075418637090407	-1
0.11822602333512584	0.938383158094566	1.8291373447813797	1
1.47622291594304	-1.6298549777417712	-1.2230938490870877	1
-0.5437442354149153	-0.663781229787502	-0.5778538455055455	1
-1.0925898878274678	-1.1584079514971908	-0.8324204841152169	1
-0.3790845352813349	-0.4079344657772655	0.5096104367390926	-1
0.03986118815269046	-0.47852577678137964	0.3102045061312904	-1
0.3459292455858723	1.1174699813253262	-1.0092129774587972	-1
0.0878829422173419	1.054961683246193	-0.6351592699089327	-1
1.02734977018442	-0.7661566023094971	1.4932475044707743	-1
-0.27892805507479684	1.7746817975243414	-1.3892267576258686	-1
0.13376699511347562	1.0197891773956744	1.3801957051492546	1
0.18897329899728213	-0.4023829200855998	0.7814246450684009	-1
-0.7829978693729212	1.0558938369724726	-1.1322794332495054	-1
0.26364919425935823	-1.0917247983107694	0.34338067762386776	-1
-0.4079135852775733	1.0025075087034587	-0.8914271804873658	-1
-0.3573709942857087	-1.1691558248784988	0.7584124412772408	-1
0.031050133199504885	-1.8707554773196122	1.7898789935316337	-1
-0.7194313626699214	-0.32023392721520105	0.5315992300323097	-1
-0.36577148934503756	-1.0369434350484772	1.3056104420588708	-1
-0.7477895615208864	1.1845406338437776	0.7478975407165964	1
-0.7630154960523111	0.8159327593511093	-0.9152169180900958	-1
0.2379098487516285	0.8736958287126668	-0.22336099170743762	-1
0.09398496132132084	0.7519921403441459	0.6582237887524748	1
0.4203095342684676	0.4787132816790308	0.24792903345647793	1
0.3588389869146427	-1.4552572137101123	1.499743619158359	-1
0.6716067523185911	2.6048640928537297	-1.692859341950058	-1
-0.30895861226908305	0.7657152119584	-1.1375459733492037	-1
-0.31317459318596264	1.9524704126103067	1.4674948157991938	1
-0.10695697476459073	-1.6387635324211747	-0.5539179647929156	1
-0.3701742520730623	-1.2669405719885427	-0.49405272262350153	1
-0.19712698059651979	0.6054473933549992	0.5232715704489692	1
0.2416410825187839	-1.2862789535083115	1.0228925531317394	-1
0.4421373847802963	0.4685579012699182	-1.2784021409824744	-1
0.23102060534454175	-0.44144487698834445	-1.1634870951762082	1
0.2618418007667697	-1.0371773340449628	1.085300966912649	-1
-1.141929796589115	-0.9166809019546266	-0.8304569374294092	1
-0.5528477651436356	0.6780845216251304	-1.5388625386323258	-1
-0.18028050165956694	-0.24050159539485721	1.0663241287996006	-1
-0.33512495895949157	0.5503349145509908	0.4109468560707987	1
-0.727689201667829	-0.7596668333254574	1.392462199641334	-1
1.3204468205441422	0.942941853257329	1.6194115488001355	1
-1.2220205626563332	1.4055029777765422	-1.0332383144638586	-1
-0.631892243099961	-0.6818989603591279	0.5617992097303218	-1
-0.6638235098734798	-0.9827134439403828	-0.2671845713855664	1
0.11311971407015782	-1.1308817429998863	-1.791603974546531	1
-0.29904652916356056	0.3911920600356698	0.47837919403235785	1
-0.05541572838849093	0.29987109979320825	-1.3517125384973525	-1
0.13291856269082114	-1.040876595612688	1.4360593238938428	-1
0.28572188253372877	1.1078279880685293	-0.9878765319811708	-1
-0.13406719994636096	-1.629138969372008	1.4751715796362461	-1
-1.4666611020653433	1.0048822217418814	0.4858189902259199	1
-1.129506195301748	0.9554405879584338	-1.4968108796859427	-1
1.0907768092829866	-1.1579255866390947	-1.1653250159012551	1
-0.6141229748949071	0.5525901325217846	1.5524285896079282	1
1.2140356627615807	1.4654913177062783	1.7914735528459789	1
0.58054539626003	2.5539596145178107	-2.0980498774906793	-1
-0.032197809347463004	-1.0276047192925	-1.0059837383053405	1
-0.5408456803366695	0.5386769328406223	2.469241950989601	1
-0.43735926075440884	1.4859680667571582	1.8783609102095347	1
-0.5804731205785234	-0.6244009076615806	-0.8911272144082367	1
0.8586988389883274	-1.2662307708583698	1.217944381086409	-1
1.289807955944899	-1.6681876894133334	0.9438776428766965	-1
0.3156248200074089	-0.7448722488983419	0.4098789599686837	-1
-0.2934042979225056	-0.8273792715132222	-2.3053552071354524	1
-0.7581984466897321	1.9747365312363763	-2.576538506043375	-1
-0.3675362482008362	1.0855364200283095	1.4366613456198496	1
0.7866840385650661	-1.256049174479766	1.571257674679202	-1
0.11675885420404765	0.9255038324434237	-1.06842379576973	-1
-0.23261108391497226	0.6315541383948178	-0.15559163374391694	-1
-0.666041524569355	-0.7409575680092717	1.1297288489768467	-1
0.39546466201426306	-0.544249430705687	0.4843553276973694	-1
-0.19362379635171723	-0.7702448359614111	-1.3016308758443662	1
0.850134230713973	0.9710221502519555	1.2653768716293377	1
-0.5064413976064628	-0.5706062459819472	-1.0063709390530713	1
1.4289522852089718	1.7860358043795492	1.0732722993945887	1
0.23906007775781862	-1.8483338992647353	1.533326500779767	-1
0.027959172501849004	-0.5943744183992914	0.4250443198420325	-1
-0.804706156929911	-0.6746623851477733	2.0065396439316396	-1
0.25944163771663226	-1.0539433138729757	0.702350452240293	-1
0.22677957905587853	-0.9483465665303608	-0.8387001625848596	1
-0.044767946930264625	0.9868458108288861	-0.8230597591667053	-1
0.46079603653636353	3.3624346299655787	-1.252350047380387	-1
0.10042960962763589	-0.4966143561356864	-1.8384458525032894	1
-0.6610740159557147	1.4382575162342044	1.1041628399972474	1
1.9634969467446282	0.5029505089719493	-2.0448856633401835	-1
0.38491069702271596	-2.2792540791027687	-1.7553570732371822	1
-0.0773882590719229	1.2996857219797666	1.0807633360828446	1
-0.2457998693831015	-1.5923411193143722	-0.528841644892085	1
0.48036230433953586	-0.9712624557988339	1.64632804688186	-1
-0.205628981663933	-0.46184670784071385	0.3166889133001002	-1
-0.021760920951053954	-0.946766616452937	0.950729123107308	-1
-0.16716827665450112	-0.8887078783257004	0.7763139133065093	-1
-0.19761788621170975	0.8860994135665496	1.1484122659122593	1
-0.5442528507136314	-2.408685209967484	1.5395805596264256	-1
-0.2990846478600221	0.4881446937553857	-0.44093600655067655	-1
0.30935461296832567	1.8915836692358963	-0.6831114266344547	-1
-1.70414317988538	1.5416699738606856	0.903418107257951	1
-0.6847238317656705	-1.4408696951444617	-0.9730965510832871	1
-0.4321995231784179	-1.6131200367834586	0.909339074459322	-1
0.2262456583188676	0.8903889273814454	0.9940967598683237	1
-0.13120807728229797	-0.7632067976481602	1.7228367424599587	-1
0.17371800892809963	0.9482010608179798	1.4031202025331253	1
0.020892539238185674	-0.1644942854230825	0.1682172725579423	-1
0.43594537625828156	0.4080534253797409	1.0906653428902586	1
-0.11319108890167251	1.3940915965173224	1.452251851682168	1
0.1317138724642331	1.0276594736246834	0.8960030716774441	1
1.1775096551180524	-0.9179762934682977	-0.9812810876733955	1
-0.2869010275898226	1.2976015828263936	1.1721021908773404	1
0.044964197426990406	0.5360713261423563	0.8595274702477429	1
0.34566850004194555	-0.6169783583676114	-1.309806044576049	1
-0.4197675617785147	-0.4370329071652963	-1.3812918442832962	1
-1.0390020292728273	0.8283913761867041	0.6752229356110155	1
-0.9132642866950424	1.2044851900477842	-1.0636090056419516	-1
-0.6837319755021329	-1.4076652362939346	-1.1526564714831897	1
-0.21128411277346032	-0.9866085549157486	-1.9172770661373222	1
-0.18134977259570662	-0.5043796248322212	0.8770555419045356	-1
-0.08774875614509688	-0.4881011409788658	1.1147403421715831	-1
-0.02903717439753599	-1.1769463418922221	0.847887514241796	-1
1.2379565002213337	-1.4562395219100175	1.0062798042836842	-1
0.10587975763618399	1.4005543551783886	1.184481694627348	1
-0.6887537313712226	1.2941626887548006	0.4326950829060726	1
-0.40156131133131884	0.2636092385428712	-0.930380255026584	-1
-0.8320737830848378	-1.6397981126500893	-2.106936882786087	1
-0.15645054231760927	1.7662131967465486	-1.5804035610710312	-1
0.8059912025576571	1.352834520273043	0.650540730577555	1
0.8176106462460915	0.8679011438277184	-1.5531048980250752	-1
0.6300445794660948	-0.6678928214817175	-0.7335287044678789	1
0.8949217157171511	-1.9407072988431118	1.0441093279417413	-1
0.37304453756116207	-0.8637711658333953	1.0397005976175042	-1
-0.24473368326492656	-1.2389843002202772	-0.8424196696225092	1
-0.31990633744241553	-1.142326809396096	1.6153200809844974	-1
-1.4297558704782385	0.4700089382101627	-2.0815194354187216	-1
0.7097882414031751	0.6014934011010109	-0.40498316999019296	-1
-1.6153588876347271	0.308180682205691	-1.2324040724398118	-1
-0.9461171659147493	0.6395966980150619	0.21886594287764438	1
0.46789997932459315	0.8499354465450375	1.264668993131677	1
-0.44998132212165665	1.9097433394837342	0.6274364222689967	1
-0.32957785610502566	0.9294876413853653	-1.096970982826401	-1
-0.14296547250203065	-1.1557301420132224	1.0087032035339738	-1
-0.304234620704508	0.9049729029723372	1.0158969393236434	1
0.5664459685881555	1.12679806512027	1.3478299831313603	1
-0.9201032946764831	2.1511275247325266	-1.1467151325928895	-1
0.32093032819981326	-0.4295688394809203	-0.8980691337460658	1
0.0296628666698047	-0.4985990897702923	-1.1172828051090915	1
-0.5273228299208834	1.7763985410015561	2.8210346805789865	1
-1.3938241340782391	1.5280812604385376	-1.2094548232905302	-1
0.3134072209223911	0.4619048262656016	1.1154661502082808	1
-0.13246385936951563	-0.8722089932609411	-1.3314309313259103	1
0.5813539384872711	-0.9765218244772008	0.4470927852209113	-1
0.745600809335875	0.6664603018927845	0.7556358051534403	1
0.4860401407541034	-0.44117271905661326	-0.9347898943852974	1
0.00789261062239427	1.3366574828792555	0.9057489335811703	1
-1.0205877339445881	-0.7197080418648076	1.5527173152933262	-1
0.23076805830504724	1.8102643652321726	1.6053517519277394	1
0.2490624351459351	0.4714797707793612	-0.27215204971629803	-1
-0.3080201677943327	-0.5144991638204739	0.6239694654353953	-1
-0.840877897677344	-1.6120500170684624	1.3170586031629923	-1
-0.9480087662608108	-1.1984475839732003	-1.514230255799218	1
1.0626364185738442	1.328959244641323	2.340948443590249	1
1.3162312028691465	-1.8204126138756975	0.6877928123340445	-1
0.6456836947744735	-1.0799337803741587	-1.9465809831908063	1
-0.18068062102612753	-0.4062175306761706	0.57402990672492	-1
1.6023464594855943	1.01627972133242	-1.6781273405954251	-1
0.2784852876408859	-0.6255259867288415	1.0429871290132073	-1
-0.1046856324581483	1.516647238965708	-1.9559470418455416	-1
0.01612568813478316	-1.1575848538421596	0.7480989634721817	-1
-0.6689267083885975	3.2213936439798934	-1.318893265367854	-1
-1.8969089181515404	0.9523803233391777	-2.4509121923011583	-1
-0.5426076035709924	0.7963862743994505	0.8631874345791246	1
0.4596138399205381	-1.7932423691854302	-1.1289335347515688	1
-0.6239894270655805	0.8103121783767411	-0.7046864925438896	-1
0.6070001954085062	0.5454784135170869	0.6907606342688829	1
0.8157919727917191	-0.894745596155623	-0.7903915688278801	1
-0.4036375879260019	-0.4726183830185802	0.4357147973231261	-1
-0.8086174725870238	-0.65904589713387	-1.4517926130340044	1
0.5947096977122251	0.7199818848443074	-1.9000993977397793	-1
-0.2913176393199325	-0.3349774301843334	-0.47828542403462265	1
1.1065727957032536	-0.8338237040418355	0.5952701439910766	-1
-0.9483963600672213	-1.2770177205937585	1.1082280314210504	-1
0.3675282225423962	1.2080850630959727	1.1378278802835609	1
0.738102820625084	0.6827148240548073	-2.1636871369800925	-1
-0.7350605011831447	-1.5777025663216009	3.4088870522611394	-1
-0.4858881119729994	-1.5939601893674946	0.6374620142606736	-1
0.3138699787977691	0.7587264794084454	1.2519555659785753	1
1.02017402076646	2.162472660161807	1.759079306268366	1
-0.46953604230491114	-0.9090840602620226	-1.0794464548761682	1
0.8677319519430574	-0.9218488669471673	1.3181977344194187	-1
0.48478023722057606	0.9055419149103466	-1.1542961261771003	-1
-0.24190077467929505	-0.7378432266942055	1.9645635791635243	-1
-0.37414857294404447	-0.4094637232674268	-0.6525650658746522	1
-0.40691451254033983	0.9117532047052089	0.45493791478834794	1
-0.5775533362381764	0.36229121699347167	-1.3555298654202819	-1
0.18256124754644612	0.7825909930524455	1.1959338880197397	1
1.8055168546278095	-0.6856517798252979	0.5059523650568176	-1
0.2946001723741931	0.4654041221649218	-0.06317973919974432	-1
0.9933628501817322	-1.0974286908955255	-0.7720339697988734	1
-0.9360257877800869	-0.6144055171199274	-1.195094508566588	1
1.0075163022690914	1.252449366059115	1.2147969025202496	1
0.04476300786026094	-0.5616702958645003	-0.7120091246759908	1
0.9065915148783961	0.7379486601084847	0.3733946474077754	1
0.39135351836255605	0.8506117881399786	1.0735735957346173	1
1.8529396683586583	-2.110839043279795	-1.3753992439702047	1
-0.3203605411121644	1.0505539573907503	0.5912264307820005	1
-0.14598925892838335	0.5901057661356515	-1.616362791397122	-1
-0.5333202774483387	1.079690045268256	0.6818196398326065	1
-0.5502237696179619	0.7184357400395572	-0.8670097374533752	-1
2.5421005567149164	1.8647015480618097	2.9452478878521533	1
-0.5923740407776887	0.2974329900366464	-2.220344897380096	-1
-0.07518489067576391	1.2127430414262343	-1.0990798625686264	-1
-0.31559412813811777	-2.5385001342850795	1.514269620887995	-1
-0.010384129721661325	0.9785266958147161	0.49662890906191215	1
0.5591296270902743	-0.7860660645057007	2.0409325389328634	-1
0.8320844491065746	-0.5117053792748607	-1.2168369085925739	1
-1.107997283106994	1.0346606220350973	-1.74987863626342	-1
-0.3253002587398149	0.3621961393802947	-1.2288066795802604	-1
0.035152929922958626	-1.8884596058818222	-0.6769729223118351	1
0.8875390464983216	-1.5408391550983362	-0.387023941417701	1
-0.663316735724315	0.5600612588988811	1.0635943662489362	1
-0.11289155073145653	1.781159505879515	-0.6463977605078303	-1
0.19754058955732134	-0.8548612037992936	0.7474481163126955	-1
0.1686272637102164	-0.3789932478226996	-1.0331105523653772	1
-1.2882016287025633	1.9017113866958937	0.7862234160154263	1
-0.5623558334587122	0.896850945997345	0.5474855762559461	1
-0.6038183956793586	1.1807597413923618	0.7881418459095022	1
0.5827952978870964	-0.32813161246923495	-1.769118750805239	1
0.7054489826296153	-0.9198874873125131	1.3111640019198592	-1
-1.3252521558554047	1.156786575142578	-0.8139518558069512	-1
0.39626172236645396	0.883503954685015	-0.9256276331164524	-1
-0.2642447105667361	-0.32914592562179235	-1.0073189161290395	1
-0.454182554921355	0.9328310711720574	-0.6225343543029562	-1
0.7715229945152773	-1.1570812947662936	0.9410292402672118	-1
0.06700227057109857	2.3927890360098223	-1.2674173193061988	-1
-0.010997337734768409	-1.287243735649977	-0.4553412498072251	1
-0.3966326461705386	-0.4248961881787921	-0.9644303169489246	1
-1.705036523584088	1.0661526256538612	-1.390617456859549	-1
-0.7282295652665483	0.4238142568443275	1.2837902206686223	1
-0.2597538092009319	0.4407742031519147	-1.9526968679069077	-1
-0.6461373189803495	-1.3089802808731466	1.173635822042738	-1
1.2590150106560092	-1.1981939615862744	0.6827052353624282	-1
0.6921240496671036	-0.44407977126693543	-1.497897124816401	1
-0.1645286633636992	-1.254221986403698	-0.47009986793940983	1
1.819403923601474	-0.6954330158944224	0.8175272684187187	-1
-0.10511751359936818	0.6992214071716509	-0.8891753017119179	-1
-0.7217523360680458	-0.41551934307843685	-0.9218317233492166	1
-0.950656209519524	0.9366034955763431	-1.0674702653164354	-1
-0.24366637866860286	-0.5361671476037776	-0.8093787325873097	1
0.49362954011332916	-0.7736738073006927	-1.8175196112105128	1
-0.2731018027046712	0.5931640146890778	0.5296015843931884	1
-0.34427819894935335	0.7054838805675003	1.6027050981300202	1
-0.039511165806325854	-0.2908615758125327	-1.3962981233480338	1
-0.44639000727855593	0.642578602681303	-1.278392238409807	-1
-0.3426509517015697	-1.1120074049814055	1.3429524555217967	-1
-0.3072695131558746	0.4499510131638107	-0.39044478151661655	-1
0.39596258240231663	0.3699637046377147	-2.6046316060677257	-1
-0.7711314494443997	-0.509055301466744	1.4661024876803412	-1
-0.7558961525998434	-1.572858235310533	-0.20976281568126454	1
0.18076097454224319	0.539059711990246	1.4652590205075864	1
0.7316370239221432	-0.5676033494591848	1.0905867495085644	-1
0.4699453408620391	0.8920267541780165	1.1840511345104419	1
-0.24298123653609288	1.7395278829624286	1.100173380012909	1
0.1089816551057027	-1.416333967576966	-1.1445644780581405	1
0.6681415194372902	1.6674464745152715	-1.7986518362172952	-1
-0.1532182760447791	-0.8304414707880683	-0.678047248526495	1
0.1855603404157569	-1.6044170295812645	-0.7811324247822864	1
-1.6466539451981632	-0.5095983494805569	2.130595015497777	-1
0.013511973022150384	1.2156397456402719	-1.6833330749623285	-1
-0.08579611521978	1.116332121276956	-1.1183795003756578	-1
0.06408855624246088	1.1977599833806574	-1.1511417126688297	-1
-0.4212433084719967	2.1503636674074613	-1.0142220532108857	-1
-0.49060040377837066	0.9995825903886226	-2.237581047380094	-1
-0.22859993457753852	-2.1563829039329114	1.6572697300353925	-1
-0.9415645647749438	-2.001650134763696	-1.0742122197769448	1
1.1100023535517525	0.6708203364388181	0.30367983300273677	1
1.1249837021564484	-1.0844469606825227	-2.4937348034763773	1
0.13949020528995565	-1.2367891454937199	-1.2367049602433395	1
-0.20396399055600015	0.4034931930615096	1.9713526611095198	1
-0.1732947377431652	-1.6821536876770131	0.7757482682796029	-1
-0.438598468787353	0.5859108800180779	-0.9961390135606504	-1
-0.5371755350869161	1.3959414777523085	0.984369348752117	1
1.2678831204637089	-0.9258020877267883	-1.0094513837000954	1
-0.5474721990978489	1.1862686209675135	1.724015757721083	1
-0.005842642850961717	-0.9288717261669042	0.8442944637419668	-1
-0.47276055882068924	0.47911219309338693	0.3899420908592915	1
0.744934651015773	0.997440778991977	-1.1701265598230597	-1
0.007774808827710263	0.9530077223895758	-1.8762681601994002	-1
0.10237677034967736	-1.8212439909521847	0.8613288295373134	-1
-0.18244911721472878	0.7972107845239935	0.5655681003346341	1
0.019033852167009827	-1.4031105971367686	-1.8173865654305212	1
0.2652836880285451	0.3397488469395851	1.0468014464210764	1
0.058806498632214335	-1.0805508119358567	0.6933196103068001	-1
-0.3596114192757687	-1.0379468732475494	-0.8474932633258938	1
-0.47882023183202393	1.4255573150352574	-1.4417290427704685	-1
0.5491378420063366	-1.14709778183249	-1.0581487581112816	1
0.7695981538182499	1.0067703649637663	0.963990828088898	1
0.3578541439090435	2.3570193205913896	1.7543950588762574	1
-0.007705784899284606	1.1310039553198448	1.14573090095032	1
0.30744797721248784	-1.6727041785697363	-1.0745223120980711	1
1.325544299245144	-0.463998285210201	1.1729847581594277	-1
-1.1698806927128182	-1.0670511204453508	-0.6821229028842564	1
-1.2263837900886179	1.4765134979235262	1.9586022066030915	1
-0.10703184787307765	1.1314775657787572	0.3687501965914888	1
0.7182645314634188	1.1421714355906876	0.5503526454477708	1
-0.9688339193796268	-0.5154258615269218	-0.49217461632007176	1
-0.29500798883639523	-1.4649028204415604	1.4574811152031777	-1
-0.3297474333833637	-1.7671616577062426	-0.5726929335432503	1
-0.7169407310788293	-0.5178511370895839	0.4751329838150573	-1
-0.7223567806038612	0.6989046955444245	1.0901122924687408	1
0.04757370220800382	0.5760051336532188	0.3642064100058889	1
0.5335059018148709	-1.8089069474944535	0.86684448047906	-1
0.1489390946280229	-1.1747903506340518	0.64717469509853	-1
-0.24402060093682354	-1.2612337052044365	0.9859211178362861	-1
-0.29503043482868224	-0.6905684078654641	2.281860065514651	-1
-0.01934525376429961	0.678967619596739	-1.11927483210647	-1
-0.06912831163934871	-0.21725535370127347	1.4524873873365247	-1
0.03472296455981065	-1.0811771892722593	0.4513799548331408	-1
-0.0672235991119513	-1.092720801542115	2.678898260408403	-1
0.33866326847290923	-0.3517089698587387	-0.6377769652002827	1
-0.13590941733901254	0.8146031746604803	0.6008807965835512	1
0.3337134331529593	0.5010091083596653	-0.3780835516897122	-1
-1.0728620520189944	-1.4867147071245541	2.2288351570897396	-1
-1.6641589096208382	0.5639200980892443	-0.34287913360851335	-1
0.06632581294698948	1.4919511495523183	1.6389161155544436	1
0.27326477447722436	0.8748325512448971	-0.6832948889009063	-1
-0.6277750076430361	2.310729000243718	-0.7653965223836307	-1
-1.2264010646661356	0.6983646771922799	1.3472055359605557	1
0.22282271208957355	0.763780269328612	-0.6810974369118759	-1
-0.004108576064187755	0.20624904715920017	-0.7812512800548788	-1
0.5105885214156727	-0.6187374775726391	-1.2222049379828877	1
0.22055154024042273	-0.500569074640693	-0.78689314213095	1
0.5589277991895685	2.725818098535552	-1.0773754504808934	-1
0.20818908092152927	1.0605673785670462	1.2685096356411614	1
0.8359397529335829	0.5899850613085074	0.8757054752243627	1
0.453363588349844	0.47369600835456854	-1.1391369567169247	-1
0.24385389511470404	1.6080916186754388	0.5461902278988849	1
0.46262744660607635	-0.5476602728520724	-1.272021818716512	1
-0.40246135919655424	-0.9124473077987585	-0.36637004711511767	1
0.31991106396456864	-0.9806415588110566	0.498092825094835	-1
0.5127770478716887	-1.927987176483997	-0.8308502250220879	1
0.3277830532719064	-0.8336677805676911	-0.3802359133209231	1
-0.29196492725542356	-0.46952533630903687	-0.4952782398614687	1
-0.8126281905299285	-0.60708632468414	1.2471017788748389	-1
-0.5411120701438095	1.257399883241338	1.3772759966680934	1
-0.24162508799345517	1.4441771359609359	-0.7180607934998462	-1
0.042721733342746426	2.493025771218054	-1.756077636451181	-1
2.464203273735394	2.7160170555694187	-1.6598218171371037	-1
-0.2350055283959031	1.2164066812997825	-0.28539789393459264	-1
-0.8713185083259263	-0.7346962637512836	-1.523875073800711	1
0.6415775502738145	1.6370794613612114	1.6162664104637114	1
-1.0802443849180525	0.9668772054133343	1.105313141019256	1
0.6299215919808827	1.6857919259314955	1.4093102993397744	1
0.3491472962074487	0.4764640780304888	-0.990162310494513	-1
0.1451997257371758	1.619158997917375	-1.2224107635675692	-1
0.5772166311857267	0.8926331123941038	0.7192369590820743	1
0.6903499961669725	0.3600965018885694	0.45198772030767437	1
-1.1031870962613501	-1.5018530737821254	1.012810017446275	-1
-0.237468984978407	-1.935109267992787	0.7053744524313454	-1
2.5119101544069156	-2.492026247374324	-0.9771156040372131	1
-0.8883700885080932	1.0431963046416237	1.4342084861828994	1
0.11270056921547557	1.2285857750657023	0.799499698738386	1
1.176950882387234	-1.946107805861566	-1.6778214917530598	1
0.20734667788444638	0.39803307396453436	1.3516108787545553	1
0.26919509771452255	0.8958926586856873	-1.2824023714431638	-1
-0.11037969396377406	-0.5968180946366156	-1.2973287659656483	1
0.5762213011003616	0.8190167714238836	-0.7822310139050357	-1
0.901704060970039	2.255412371594107	-0.22181910662357252	-1
0.4693366425934052	1.3022753825872593	0.8733058846226498	1
0.060648881178315156	-1.036372667162179	1.3924192958017685	-1
2.0685547771650183	3.1428009998068367	-2.135268343136116	-1
0.11077107754318924	0.3981499641367965	0.5166554686257768	1
0.7306660189295566	0.5963230927580871	-0.4935690357186125	-1
-0.339772945045522	0.9938116759074012	-0.7457056441285945	-1
-0.8265461245097394	-1.1845567013820215	-1.4245269237356315	1
-0.6057412296034492	-1.6014656137113035	0.7961027792605788	-1
-0.40409516916675364	1.1329252022062668	0.6014422932743181	1
-0.1243687602811408	-1.241842984572637	0.6049491473454113	-1
0.4342211572472655	-1.2495904890303073	0.8040099682460846	-1
0.20757513182044274	1.4893813974045131	1.4582371445126756	1
-0.10355200159956571	2.527494158389654	1.9218293978710572	1
-0.8552305776611338	-0.4482754426773652	-1.6555950803980874	1
0.2931468375182465	-1.1487053729998995	1.4523168204587178	-1
-0.13836370698402645	0.9349306304022205	-1.3328148352709204	-1
0.21675030613355617	-1.2633081678228986	1.0079267528496239	-1
-0.4365197803024533	-1.137731826218258	-0.24608892733141347	1
0.6069446162259877	-0.8690245200509721	-0.29703645504347476	1
0.058600161294313086	-1.4635869980456624	-0.7787539058954809	1
0.24666795334979152	1.6525486112395982	0.640608734665125	1
0.05362279260291231	0.6389393235244196	2.413728965073979	1
0.9133655688066119	-1.4726786723046263	-0.998457728932657	1
0.6863187933771262	1.8050555238358275	1.3661080969794208	1
0.7746677723909167	0.9952748654610106	-1.3522825042944207	-1
-0.2278795532626341	-0.9787819637749449	0.8118615555626607	-1
0.24786307900005994	0.5890589391858647	-1.0362608248857312	-1
0.25189895477992796	-1.065253828250016	-0.2710602452974361	1
0.2312536361595985	-1.4745257972749908	0.9017002095074023	-1
0.5063149930882979	-0.6885973538264503	1.2594117515178882	-1
0.6520795469675971	-1.2624878281017615	1.1337784917447187	-1
-0.2221734073481232	-1.170230460502039	-0.9384660897085594	1
-0.401855456441396	-0.847206911370646	-1.2573433574279889	1
-0.08685773464213516	2.194239636308324	0.9521779417611411	1
-0.3637384785913751	0.19095421168753557	-0.7414107515272197	-1
-0.04432991196858366	-0.7187807042950347	-1.248559935721375	1
1.0246372913935704	-1.6342759712562733	1.7391193520517414	-1
0.5792127851928438	-1.9811886016431415	-1.5003123317666163	1
0.19893247414777143	0.5397401219062865	1.9145678185837813	1
-0.17678014391747454	-0.8675746070568511	-1.0582986650667503	1
0.29083474936592235	0.9567531318036806	0.5721600542121936	1
-0.9579982374298139	-0.9633084366413238	-0.11478858670961646	1
-0.46560362189103455	-0.5240441423865665	1.0779129115689012	-1
-0.1090720820161481	0.47809561045713134	-0.35690904193933776	-1
0.5084351411035344	-1.1057073731021936	0.7827024189242039	-1
0.13188024242723517	-0.6637309568707553	-0.8070750823059472	1
0.7817372270404609	1.3194581531005705	-0.7453125290666099	-1
0.557256770747576	-1.4525860997340065	-2.0248974708626415	1
-1.3115711439909963	-0.8878571680100935	-1.2783023707127126	1
0.315340757026737	0.6970588095172499	-0.908895706982584	-1
0.9441031073451295	-0.8799311660571788	-1.7152109590194924	1
0.8267334120954809	-0.817948577710504	1.394873095886447	-1
-0.1806041360319663	-0.691483173081016	-1.2406841075010915	1
0.07617568778617957	0.5849746388392865	-0.9631674396284713	-1
1.0440653706741705	1.245734251017738	1.3818966334282714	1
0.6689482838006692	-0.4231351215277089	1.0003002450368985	-1
0.16125346298831983	-0.8055091411960364	0.6129723519766381	-1
1.469147395790258	-1.6997117741300727	2.1460454978731107	-1
1.5366037539039994	-0.2929460987695399	-0.9878820913112684	1
-0.9063346710262042	0.9565462601261846	0.7235404155423972	1
-0.43768275808064244	1.5855814754079556	0.9826302761916496	1
-1.3439667021642183	0.6370702500244538	-0.6919375431774184	-1
0.41526518514849303	1.8802426975499529	-1.07277968659679	-1
0.0060498241709080625	-0.6481014332981836	-1.05868386358161	1
0.3201449546623817	-0.5834936758903814	0.46733882034306407	-1
0.38346482501781154	-0.9377398035211365	-0.8962651541298335	1
-0.045306955760032755	1.2165064758969037	1.2290399849810933	1
-1.8593641174645097	-1.0512556066833905	1.4397473493644937	-1
-0.1995746678569225	-2.029922033521473	1.1280205509029608	-1
1.2707611652430142	-0.7259836635384131	1.0682333932875065	-1
-0.07962078459170055	0.7684888259834156	1.4704384249166316	1
-0.46213087849881873	-1.7298232213381746	-0.916508197875247	1
0.03189389026478989	-1.533743009293142	1.3479041697908527	-1
0.9151308678549778	0.9856647599014945	-1.360114879973348	-1
0.19520023817877874	-0.4633631912766678	-0.721525141127048	1
0.41794435664604285	1.3708988083864262	1.1473526646946879	1
-0.75259999813945	-2.922610158180598	1.7163794374903951	-1
-0.1563193909223021	-0.5006138752123724	1.0790271215342206	-1
-0.23023989304141826	0.6601892619749271	-0.6597592800622994	-1
-0.6522756960192893	-1.8317509139416894	-2.0332527477867206	1
0.5402324080466148	1.600065090429919	-1.918513705786965	-1
0.9481985423706943	0.45965832511172033	-1.0238215545950644	-1
-0.23377702580616128	1.0238068538089329	0.34154596596463194	1
0.3975972409144638	1.2412701032655706	1.2732866390997097	1
-0.7181979928887525	-1.437170907602709	-1.6557840758756939	1
0.09778813802431359	-0.9777544876616502	-0.7254991933060686	1
-0.03340474651077516	0.8970903814304041	0.586255238489593	1
-0.16922837674569224	1.4396124313888805	-0.9531520694683931	-1
0.12724192119347189	1.5320231938831983	1.0383936562207112	1
-0.3537863949677169	-0.41277808322061393	0.742405935281462	-1
0.2880846975310001	1.550570144084473	-1.4840683215155857	-1
0.09098059773314507	2.1284845489424256	2.4821816520421693	1
-1.1327326575724086	1.9439238787804414	-1.1349903759355835	-1
-0.7629357162128594	-1.2436355001183537	-1.4877306027844182	1
0.45572106431797166	0.5034380739599271	-0.3606907642538688	-1
0.2329101774755703	-0.921931550316145	1.8042625732786952	-1
0.31260994047767593	0.9658045841833691	-0.9112204158598407	-1
1.0579711671411278	2.1457300524289624	-2.0759536359634736	-1
-0.49228292457480005	-0.7756225998678269	0.9316385050423108	-1
-0.014337488786857804	-1.418527197941714	-1.2740189112222702	1
-0.31271364999136464	-0.9522361327464074	0.8493707523894827	-1
0.3963063814072701	-1.0681473681088907	1.078992333826089	-1
-0.3743769141749001	-1.6524252070259238	-0.9625996669925931	1
0.2136607964038583	-0.47691516132448497	-1.6908833479876026	1
0.38330291672123656	0.5081903865519649	0.9765077955756888	1
0.126909137168039	-1.2038278225078856	-1.032279088632164	1
0.18170766130299149	-0.2897661552283533	-1.3031893297083168	1
0.5892886104341813	1.971594456474845	1.814860577312265	1
0.9940736333132552	0.613128569046451	0.7876894276930116	1
-1.1981539138834245	0.30753321393039695	1.1215200730247203	1
-0.9234787795069321	0.7088936589668011	-1.3666317911600294	-1
-0.07184068857611611	0.42684947017083597	-1.1696745508587987	-1
-0.8728694423370786	-1.347256281990993	1.809719774625846	-1
-0.40767049459138566	-0.671726826484778	0.8826950691866606	-1
-0.7741346694011791	-1.6187921458227335	-0.4986217439148684	1
-0.4173301751065744	-1.302967749020639	-0.5992692890228222	1
1.4890820875318904	1.4951546987483848	-1.2279624779394838	-1
0.14635709648269588	-0.6197247173165294	-0.5247623208788104	1
-0.18605807349505113	0.5429245611649254	-1.1876167813443543	-1
0.26660179780496507	-0.48270163443962255	-1.0467480936022406	1
-0.812889918786259	-0.6221677330003123	0.9360566385637826	-1
1.1804216496589512	0.9117071831232662	1.1044322823603716	1
0.6888732958514467	-1.029369069148528	1.32992285474129	-1
0.9343068220851312	0.43003091194792775	1.8001418916835228	1
1.230766836003657	-1.5695394823123383	-1.7255786722299438	1
0.5092776630254469	0.8475929607745638	-1.2672590758596154	-1
0.05983383756987186	-0.9429607313949824	0.5463748160739801	-1
-0.7066387054197889	1.189337775939534	-0.674929949616932	-1
