0.2912783191835094	-1.3198395080098324	0.05579348796443488	-1
-0.4175578691855668	0.480904304656878	-1.5251509842265618	1
-0.1355462051792242	-0.34767375729070693	1.6987718481377905	1
0.10950870732601403	-0.11103717130461568	1.1613311630000136	1
1.1270348368871694	-0.2526476768665632	-0.1356177467550811	-1
0.010656345626531685	0.5674374119166503	-0.09127316889661788	-1
1.5093843431618368	1.0443859774631297	-0.6621901993047268	-1
-0.49744546127772044	-0.606397177034228	-0.8089139413616215	1
-1.4508844741814007	0.8330080264795816	-3.2200925443909694	1
-1.2196318364703547	-1.3671223882008914	-0.2232518359000666	-1
-0.6785102885555602	-1.2436705890195636	0.43811120681065296	-1
0.1846420900351409	-1.1647265702297962	1.165572391898713	1
0.18439548356418195	0.7128999809983912	1.8270303354716972	1
-1.3829159096235526	-0.05549052585548267	1.7614210927158815	1
-2.3611164974933736	-1.6053231838035256	-0.047075180702713056	-1
0.3922943478239983	-0.6876608329739498	0.9488203321106945	1
0.5528263792473698	-0.9550254602373642	-1.7700863168508825	1
0.667907382434863	-0.5416299220363261	3.3310629730707255	1
-0.3809415606232077	0.096572559476899	-1.3866092597016675	1
-0.5336146278548526	0.10648245769426332	-1.442226132926762	1
-0.7657412390911633	0.12208890124359097	1.4440259845976664	1
-0.2233794328697957	0.424355629680766	-1.2512355948969691	1
2.598111329892741	-0.7087651477648828	-0.1586030291847731	-1
0.5561444561575382	-1.3392225942243678	1.4424562524307087	1
0.17284698365358742	0.11260435009700309	-0.9099828752981931	1
1.1577290401188585	0.07206086505618398	1.8880807551032126	1
1.5829463218259159	-0.4952502715986094	2.5419006387638508	1
0.035114951484329596	0.30309688037234517	0.4676618012669625	1
0.046599784055577194	0.3256820729486011	1.1326926835125168	1
-0.5891235813449995	-0.7648440437276574	-0.22505924358124546	-1
-0.10531244229978018	-0.5180945467960716	1.9763853873605828	1
0.5531740935756405	0.017487269886610493	1.5522505431839806	1
-0.01600727613213828	-0.042316548264222154	-0.9757788303682502	1
0.506534797430545	0.5313080108153433	0.06026126015916078	-1
-0.10346047084976576	0.8417199890651649	1.2187189329769803	1
-1.5118405843035276	-0.694547494183122	3.561388806722944	1
-0.014582746416293335	0.05047783586507635	-1.6765335614624057	1
0.11176588195009568	-1.6403359468643113	-1.6819970928297212	1
0.10002994277889166	-0.38088822419548435	-2.4179040701533627	1
1.4022839565292449	-1.229765386393401	0.11401667846191488	-1
-0.047512486872564694	-0.35832216696996816	-0.9435081117737456	1
-0.38993653132664813	-0.6045165434163646	0.021766685493713998	-1
0.07963210722980764	0.8642449185461372	1.8639501905761346	1
-1.6570943955819173	0.09307811109698008	-2.1243784807614596	1
0.00666805141192363	-0.029462739640257033	1.2158013477981173	1
0.6812384612613536	0.910830289259615	-0.4993837559575153	-1
0.7751505798705365	-0.1827962157283068	1.5605409255915816	1
0.20086386883475482	0.07044898238693113	2.0768797892552087	1
-0.7675675893465451	-0.04797447396732486	-0.3377893464657884	-1
-1.5317451654281102	-0.11111567122733873	0.3115765215849734	-1
-0.1264624742208847	0.23304951944008223	-1.1490668999957947	1
-0.2025676458361704	-0.3124863077058199	-1.194562310418993	1
-0.9839698813734846	-0.07399663971415639	1.3728312811639727	1
-1.3328929294845393	-1.983550855145504	0.5158372219004883	-1
0.6489057636989889	0.07393240468623323	-1.2834733690084423	1
0.9098662395251341	-0.08817000638507162	0.0472793435321757	-1
2.2312235126181434	-0.2085772209303775	0.7210313187712372	-1
0.153797411382947	0.7059946014833274	1.9177618694545786	1
1.4433677863461736	0.095864066854283	0.1881604149927018	-1
-1.6460867373790757	1.7588242989171905	0.07099303104684106	-1
-1.2466915993030359	0.11990938421736426	-3.197271714444709	1
0.15158462149842136	-0.39108350970583255	0.8702691318768712	1
0.07142837356587209	0.2711266190278225	-1.4067293658145108	1
-0.12244871883419485	-2.0430489674935473	0.06669717246490318	-1
-0.7328724210855244	1.1621797506984624	0.12203747826487349	-1
-0.09680306233310855	-0.7635818824882988	-1.2796892342134616	1
-0.3235571361195744	-0.6820400135658926	2.39079667489974	1
-0.14109450804778018	-0.48932714643897834	1.4295539642516526	1
0.21191075471630078	-0.23867222929208148	-1.4229133851698805	1
-0.20293517939901873	-0.9054400679755232	2.590048963083288	1
-1.103144820139082	0.2083281149489744	-2.891530877958161	1
0.390880769294981	0.8088609111745166	1.965956380639285	1
0.5255815776988256	-0.6112911666838888	0.8874298160137133	1
0.9162442216389122	1.9583394341871607	0.2980778222634025	-1
0.7867772682637542	0.7662609624891378	-2.393044104919653	1
1.153822775136113	-2.571447024774776	-0.33116861354898747	-1
-0.21484852171882568	-0.03303464124869649	-1.0625024261630156	1
0.07844506601996896	-0.02805963229845347	2.1758724342479265	1
-0.0333339790723569	0.23790751335973284	0.7832260241638093	1
1.4628821034564612	0.6007590394576384	0.30907213849448034	-1
-0.922139112644266	0.2678658844189848	-0.2540559407861831	-1
0.8875069175626908	0.8534202202594405	2.3185243342161397	1
0.049064600733017036	-0.11203446915698392	1.818886805912837	1
-2.175902316969951	0.18009792256354473	-0.1441716983211233	-1
1.8920626068372872	-2.8519949746775533	-0.41719540428580465	-1
-0.32410268035634293	0.6153019132520788	-2.506473664411907	1
-0.06557790695800697	-0.7379916645222712	1.6508064032244811	1
-0.7904714994191863	-0.33075445791140184	1.945399474974146	1
-0.4144430741721621	0.17995118092870158	-1.493399561901349	1
0.36194504616471657	-0.5908264523605802	-1.6209487657145565	1
-1.4401916971114623	0.5155533523080916	1.9953717425021014	1
-0.7379284500600295	1.4357590776145746	-0.15509023898281316	-1
2.2146476887747006	-0.798634676839602	-0.04499082505003574	-1
1.2692898431957738	0.5138133393155977	1.9673913467316873	1
-1.3672632183512312	-1.664994222372996	-0.5340677541853285	-1
-1.7317968609964745	1.2912092792320848	0.30725791365607735	-1
-0.03578336028659383	-2.391023836270505	-0.22550085034418457	-1
0.941632577016958	0.1972642496574008	1.5120448366761283	1
0.2627579730161912	-0.3024314376115059	1.2899956794723513	1
-0.37964319702163984	0.2027591079420175	1.7684818324699256	1
0.5427781447334002	0.11774370431435835	2.10302709780452	1
-0.406633549646506	2.604136764217037	-0.5496654820828661	-1
-0.7083985300103486	-0.006068956016775231	-1.4759554948475604	1
0.26179448126133664	0.627364160786283	0.9808901643579758	1
0.0014665668977013441	-0.26112933431932883	1.0609540073606016	1
-0.6793428782801085	-0.29628724227258196	1.0581789439484661	1
0.7365444045229816	1.327001327109667	-0.1967907215121888	-1
-0.0994233705974149	0.7078385529819458	1.1766273105307858	1
0.6429450260488274	-0.9320621136929376	-3.8886334350061187	1
-0.6975401861243463	-0.5078269279809855	-1.7092758227911498	1
1.381359838868332	-1.4562351588606535	-0.8043976302938108	-1
0.549655024413186	-0.7429988588040239	0.310050085890593	-1
-1.0621501546826533	-0.8264923969854037	-0.09907182537602462	-1
-0.6657261077858909	1.7768393489247762	0.161924999798086	-1
-0.8730516272824174	-0.28607623400281773	0.8240361762432666	1
0.7868006492842025	0.3478833029217808	2.325545855361533	1
-1.8157431171295544	-0.2598158642475916	-0.3004376934875125	-1
-0.6520917377876706	0.33527962412981904	-0.20408681750818447	-1
-1.2400842214410273	-0.31100671239327754	2.382633195523502	1
0.7628513967107234	-1.7246702192754944	-0.7755084893478755	-1
0.35172847235320226	0.9515593380434895	0.033791366375150074	-1
-0.1915430722248903	0.8667375522698434	0.16988879914530897	-1
2.4977607348574122	0.5497636084444417	-0.39270487779452884	-1
-0.4243804706843852	0.2545360084259709	-1.2541381208359215	1
-0.6712485109244517	-0.2551534116967594	-2.053427256786731	1
1.4495565139193611	-1.0623527277849547	2.126058604883269	1
-0.04605229671848808	-1.638886454312329	-0.010097990536061481	-1
-0.07447275941092917	0.1545172338963786	1.1922121699474721	1
0.41293346162479866	-0.4051446887558272	-2.6728590759420294	1
1.2534896582038477	0.10306913991117764	0.2146862821073974	-1
-0.43608263206462544	0.219310073469695	0.9993844851502184	1
0.6218894387260211	-0.0008915243153685933	-2.5352318093684723	1
2.4587441024018215	0.14989248627205204	0.2702169947332578	-1
0.5109151278682438	1.1037210328286706	1.7868179008559197	1
-0.32683547103292176	-0.0032348832111992317	-1.5455227248236423	1
0.12801593635273167	0.043144583930054575	-0.900460229234098	1
-0.002035521571608458	-0.5316138536046904	-1.7920952578973854	1
-0.11754448797471051	-0.12273622028963461	-1.652560005850119	1
0.08704575767493009	-0.17589072799945107	-1.5023692686036045	1
0.4185662608583921	-1.0291786728278622	1.6455789504122047	1
0.6475291987682275	3.095754112227503	0.9944736776711631	-1
0.32617578621491394	1.2588950124502896	0.04188169911234311	-1
-0.9470692103094215	-2.764811495532766	0.35643636598038025	-1
-0.9182559783051318	-0.5387213787045984	-0.24865041860261827	-1
1.041899614742034	-0.556721451060525	1.9773570450700764	1
0.0639107743171632	1.6817477917407082	-0.4697221404458845	-1
0.4710337759699734	-0.17306555658015654	-1.4828230137586642	1
0.8894157783807952	0.48474165305330785	-0.11442234078382282	-1
-0.18972108726853476	0.9317021340082494	1.8849657905034118	1
-0.165649693381041	-0.33381730102446433	1.2012280540254185	1
0.09978416480439994	1.4691593190384196	-0.23973756922730777	-1
-0.37026340076690356	0.11422054814438289	-1.023984701956807	1
0.11816302092350836	0.7558659222339159	-2.8902479573407103	1
-0.6569593285946937	0.7198526963573043	-1.4662990844596584	1
-1.4481340247940218	2.665307976420224e-05	-3.6974509726897673	1
0.7139813962985937	0.7048482763496084	-1.9765136895955595	1
-0.2864264579889391	-0.7306960750004624	2.1682552955062784	1
1.0025452692406487	0.7703545083684787	1.9180065111335263	1
-0.33801361316338335	-0.38921636975910834	1.1277132593361834	1
0.8667298874722629	-1.5015339604678017	-1.9557066386318633	1
1.0029869604646149	0.48910730804245645	2.355434610735723	1
-0.029901800613466548	1.3915324959177382	2.39301781044843	1
0.15049174589280565	0.4687404523935873	-0.8416202477178492	1
-1.339154236731499	-0.07753753413309095	0.2026197837400844	-1
-0.07848519416574742	-0.38993167901031645	0.7865818654028007	1
-0.6199190599781893	-0.25143704031225333	-2.0959072482435013	1
-0.08389079132548151	0.5200326513679853	-1.1179380532075194	1
-0.24554499344344016	2.1223446250074742	0.0015783929643921578	-1
-0.3433930224978226	-0.4215611708663823	-1.032486992781814	1
-0.401889500731777	0.7375882816408069	-0.6612954905208334	1
-1.9820715830335618	1.0405935699898683	-0.4573886004369353	-1
-0.4489393366777059	-0.19569960646963497	1.57582896771304	1
0.4902052851648742	0.5651021921787076	1.2208804674961489	1
-0.2928670232075773	0.40150322115139625	-1.3238136421353182	1
0.7701461513283433	-0.7607123842280148	0.059094820323470895	-1
-1.5042459499674523	-1.6036461669457585	-2.1715326628818903	1
0.17191976892944294	-1.6689454462739084	0.3718559536576852	-1
0.38570374034128224	-1.6946197274022738	-0.2058251604208423	-1
-0.4041655814225905	0.17301210249197396	1.5742738808463443	1
-0.6258685272849722	-0.44780039257527293	-0.13268131679341688	-1
1.211336175389834	0.9810095880716312	0.5605465870236179	-1
-1.4155701551660356	-2.375812675669802	0.11878504148329891	-1
0.6122184302264884	-0.42611487475144366	2.0821730805352154	1
-0.2697454087206358	0.37866426761830835	-0.8982700829245931	1
-0.9297607714424593	1.8870997105053617	0.09080867268623635	-1
0.023958960815362182	-0.3685151539547623	2.2430687522384423	1
-0.3295457008227732	-1.1350034837698746	-0.16838504536388527	-1
-0.9611282538572592	-0.13880465386455262	1.377270016147718	1
0.738694780206386	0.2175181124564474	-0.048066402940874414	-1
-0.47541302154543047	-0.7205581424417536	0.36673559197356004	-1
1.5938008113052526	0.233599588259529	1.7503922757637178	1
0.1590288410697639	0.2819643112701988	0.7394489034166218	1
0.02753842656966987	-0.274944991530367	-0.617555645042905	1
-0.10687829883501188	-0.17281220219163154	-0.5705987105015133	1
0.26533639514829854	0.023450628408121572	0.9229411029821543	1
0.6205966109810777	1.78097075832023	0.1496186059782456	-1
-0.436481144683524	-1.1513989658831125	1.6597796174917818	1
0.10411349021105477	0.7934662198858082	1.0587972139342472	1
-2.009480065717015	-1.0021296281297998	0.6775667683625786	-1
-2.037286459478122	1.1896105193379864	-0.6259526148998878	-1
-0.2750154563185186	0.21469908241766011	-1.2082176641477167	1
-0.19325283072404792	-0.6835024264828241	-1.687405775574566	1
-0.6616065732733746	-0.7699618280493092	-0.1229369730819167	-1
-0.4253339856542975	-0.19344151806677906	1.4003547715760796	1
-0.5583055871722703	2.2090456218622565	-0.250242239291405	-1
0.3235944534247153	0.18009654212654905	1.9655180473563023	1
-1.185511860411771	0.4637862575074634	0.38088041540915013	-1
-1.9013166347356756	-0.9588285785058037	0.5618482956278069	-1
-0.7364416295363159	0.749020901379059	-0.11398956894901885	-1
0.752919850335787	1.1274570646993751	0.5502508031100545	-1
0.8628108629490077	0.737014146064547	-1.9410265423332604	1
-0.6594785540612883	-1.300124466664761	-0.2864310105708882	-1
0.6971017239792614	0.37976092257744	0.9825362652972941	1
0.4694630323838368	-0.11079462247980729	1.760130890323759	1
0.14900175593770573	-0.990229821816321	-0.16788440922802875	-1
0.8587844133007271	-0.27459418241030725	1.9147592683636179	1
0.06221813440778	-0.5185890397445065	-1.8084818170107697	1
-1.405999075193835	1.527153167678995	-0.7902589688815451	-1
0.40809427014984384	-0.6409571359490447	-1.6200504200450996	1
1.708825456168973	1.134323004047804	0.23798707982966155	-1
0.23298770236270794	0.9771481250720201	-1.357644804958949	1
0.7541514403335499	0.4079185420838054	-0.056709412780843654	-1
0.17885680987557995	0.07298838693018758	-2.153096303427459	1
-0.2425787263892467	0.6352829746688352	0.2668946708199981	-1
0.5264510633556847	-0.48903512557812323	1.3085826337144706	1
-0.5440491713051145	0.17172624000012127	-1.6835825574409515	1
-1.7114981735396448	-0.38326698733756803	-0.05176941104554173	-1
0.132783766962628	-0.010106550101827098	-1.1378600585494647	1
0.4262115420170743	1.7848180451375648	0.34817598960515406	-1
-1.204626441262425	-0.2715696806685581	-2.1798721632778655	1
0.0654074560986605	-0.7400000581664027	1.296500413629316	1
-0.2366285376923988	0.666519459763901	-1.2370453305097189	1
-1.2474225038554498	-0.47592822339283125	-0.29693835910074257	-1
-0.709810568173467	-1.3028584852747889	-0.33534956886204764	-1
-1.183447911261125	1.3911842714292364	-0.13885999323273787	-1
0.09118691668550911	-1.1873008326056342	-1.5424919362693856	1
1.2570679612216018	0.43544882269867485	-0.3615211488152261	-1
0.4649538375634539	0.740075795366891	0.22127867673752483	-1
-1.2373627154581108	-0.09345399567315617	1.8855075458337955	1
0.6544629854840412	0.11232523361691149	1.3615866846213858	1
-0.9178729413180956	0.12269938562776268	-2.5759372211997573	1
-0.9327154077961737	1.2977192987176935	0.14404408336173613	-1
1.6719818790654275	0.539885593513029	0.4984845504125953	-1
0.09259051862648346	0.3594702805857283	2.145524117810938	1
0.0785642970748694	-0.8071423974093467	-1.8520745959972047	1
-0.8098413532074225	-0.593740806064323	-1.5808144914909916	1
0.4533534110381098	0.5644882889390086	-1.0631592078132144	1
0.23191044062525085	-0.10781963411622505	1.3469359499581	1
-0.5834780101135489	0.44925704524381416	2.7464123781578644	1
1.5778587762251637	1.022518637869454	0.003750961125176808	-1
0.4161844420946404	-0.20994800880169195	0.8941362365357657	1
-1.577084629223093	-1.6477735529534483	0.4266064754154314	-1
-2.2638377760013513	0.07273075083600353	-0.11853173744181801	-1
0.4927992513191085	0.8084129091918208	0.9679636933771281	1
1.3756666188982862	0.34323093990251197	0.4426932760625764	-1
-0.7841696391029869	-0.4373025006073552	-2.0990027623128844	1
-1.3367630235311037	-2.104994382612998	-0.36673843747828183	-1
-2.2106353899239988	-0.4856304832340438	-0.0910529683278501	-1
-0.013046346034472233	-0.09271019870219108	-1.4422474509098469	1
1.5456110279507727	-1.1425618019774542	-0.2635982204117688	-1
-0.6565260082289492	-1.6685330215039578	-0.6294548464293048	-1
-0.36011837773322664	0.4599052560225754	-1.7890722296242054	1
2.2344806577445193	-0.08680753521629209	0.2688739656820477	-1
-0.5216480012375828	1.3018217487529016	-3.0129980921942776	1
0.36641204842835157	-0.09658039688401568	0.8376180415214549	1
0.20918187099846242	1.4897333222982128	-0.42330006114850016	-1
-1.2867799760935075	-0.17244370039452972	2.0339893608190383	1
-0.2751883417194218	-0.862760102346938	-1.4832193606722095	1
-0.2543077877439379	0.3373899818258446	1.0229801756263466	1
-0.24691637102494537	0.0035326036342025347	1.3508598415033168	1
1.281062412534125	0.8888635759128223	-0.3165643045903002	-1
-0.9594854173827595	1.0235180144795188	-0.009750826289174954	-1
0.4770740792632434	0.4395743161810664	-1.794166031146861	1
0.6118531603865089	-0.09588887478320476	0.9859424258765073	1
-1.7772248296721564	-0.8076550364538524	-0.2544592801260085	-1
-0.8338148680417873	0.9451417765344987	2.020277610748801	1
-0.701295962023526	-1.116994227032086	0.1452890223936753	-1
1.0887733375527024	1.3910287322814718	0.09439849170658544	-1
-0.5986176825782346	-0.5526221812274205	-1.367955038993948	1
-0.6214957889243651	0.025248382563014087	-2.063093238405158	1
-0.6633680906379978	1.5931182845780456	0.4937831259483685	-1
-0.08288462769041802	-0.10261771877068072	0.2495473507471223	1
-0.3542801606665722	0.41909893805154197	1.1906505559932916	1
0.6392641931704898	-0.5073687997293709	-0.06335526480778535	-1
-1.0539872510322004	0.3530946858625392	0.19755047736431103	-1
-1.0004538624890649	1.3274527646052827	-0.013489140581606367	-1
0.038665303728235	0.19871390536342015	-1.005894567053565	1
-0.3823781183645546	-0.2854210799490127	1.3615742317529933	1
-0.2663308737666839	2.2356505071191943	-0.37553251692380574	-1
-0.8889738707521159	-1.1784781835826996	-0.4131861506681332	-1
-0.6321218523708412	-1.4540010175281033	-0.36619690336677296	-1
0.7315947051683263	-0.877411334407523	-2.768281510342615	1
-0.7664592250075943	-0.39247339839526785	-1.6329927628572023	1
-0.985375404954601	-2.109798820994244	0.16662054331150195	-1
-0.4275456022907114	0.2097856254402457	-2.288490956631602	1
-0.16537845252686328	-0.2733924874417356	-1.9930013874306927	1
2.7836122052715835	0.8227945815512479	0.03768921250257229	-1
-0.07907013112728692	0.0930898984821279	1.016934182054964	1
-0.15306028747339617	0.0272289223553118	1.4426848606066793	1
1.718211650021707	-0.6521584517459609	0.2171822311018487	-1
0.6037689001933669	0.666593360785071	-1.3194751397533513	1
-0.6966699896352644	0.0805098219170218	-1.4165310043707309	1
0.427685103774748	1.2181712066091457	-0.10418427179335193	-1
1.0277995475589488	-1.3395468093035723	-0.11074257291644246	-1
0.7371478858885658	0.8616145854497312	2.0062670111759076	1
-0.8422648708034792	0.637768812842286	-0.13584269016963957	-1
0.20684643776857847	-0.23271587265787624	0.8925949687513418	1
-0.2939358059590692	-0.547500505426308	1.5980946189964365	1
-0.12791215576406845	-0.9263283320275764	-0.2817737632371697	-1
-0.8184662149471352	1.3054413501941324	0.018283383333222297	-1
1.6901101170455812	-1.5828389780644279	0.08280579787047519	-1
0.5540100276461555	0.4469031083305429	1.484109797942579	1
-0.8941833123440938	0.99084985301278	-0.5056872587218297	-1
-1.0245249155209013	0.4400329212765344	1.4931300062647543	1
1.250155925464765	1.4402576887861156	0.26850300499258206	-1
0.9337984344839474	-0.2117002254627402	-1.3619448936871081	1
-1.5481218579922331	0.37610068239940875	1.7246956944907463	1
2.1464913608792813	1.6648857655278217	-0.07496308091495296	-1
0.6458514677826594	-0.294182838519346	0.735191588447194	1
-1.5938887373587018	0.23578427761053722	-0.6012269654164129	-1
1.4027849761401305	0.5068773755512375	-0.0727782668078745	-1
-0.37812015593436477	0.7826675234199088	1.0759113196909174	1
0.4216604185499774	-1.5998023599586264	0.6376885416373012	-1
-0.5193131877510186	0.05150338843874826	1.6185301761778403	1
-0.40231302741079694	0.7943033384873719	0.29940390341558665	-1
-0.5039895986354437	-0.008607561970384231	-2.1050014200771474	1
0.9285114957109104	1.2800028254522342	0.4543095743669754	-1
1.2062881178476854	-0.3053609093746229	-2.6477806833302284	1
1.819796080275407	0.2743114775092103	0.2235083429595866	-1
1.5191634211551517	-1.23521553626383	-1.1378696485146844	-1
-0.6556485794265277	1.25885103242331	2.130796219135944	1
0.9209151772421762	0.8249765452370206	-1.7588843459378585	1
0.0943354774344512	0.09476530822672888	-1.339044112795045	1
0.3029601440685248	1.4260582956614818	-0.2969437722798408	-1
-0.13535941506716623	-0.10082236862573482	0.816189242627414	1
-0.09850540062484332	-0.8205220245046179	1.7768670820057735	1
0.8021323960191254	-0.33456974045688004	-1.8249334884426873	1
0.3698504635339715	0.7925467842454272	-1.5696457377670199	1
0.04553190847669734	-0.40820886600411954	-1.2890647494877787	1
-0.03516207040233124	-0.27217309549736124	0.6880259614085588	1
1.5308240846372059	0.8387256263201555	0.015786294864345334	-1
0.678088301703585	0.5236466890073795	1.9007253529627373	1
-0.3398253087871571	0.21269374360296406	-0.8758127313803593	1
-0.6221848305292681	-0.1207654021937435	2.0822105903271604	1
-0.665641004533106	0.4498635703290085	2.5615625367674686	1
0.19373922828927348	0.5663381432415445	1.6878815764295814	1
0.5470046865384015	0.009353084044705357	-1.5736370377850912	1
0.06753748180901614	0.507567232549026	-1.7765998265451026	1
0.845637298622036	0.2428332989044694	-1.1202844022965486	1
-1.2772849032598894	1.4665114884688084	-0.050980949407377164	-1
-0.14307314083527745	1.224834276349429	1.4870899716984627	1
-0.1508523302662731	0.2815440431931503	1.7214236373596798	1
-0.07860701471361622	-0.05842358381310536	-1.3765408815521476	1
-0.172181953128078	-0.9547501020598779	-0.38651124656331803	-1
0.19065069885671895	-0.16789127361680062	2.0876705010880263	1
-0.27514498732338644	0.11526170850995401	1.0580997776228607	1
0.2484790609389601	0.26419992993738106	1.5461489264102797	1
0.3639332163045301	0.47613854285472496	-1.8542165375516266	1
-0.21120956987988976	1.5640182345360696	0.24737459570156786	-1
-0.024411909555274575	-0.24572684720887372	1.8956342325821391	1
-1.672209514104692	-1.022035951292427	-0.44698514970624326	-1
0.43457227319467956	0.18647079318767726	2.5892892456489944	1
-0.09316956194678364	0.28287100765107054	2.726067612223228	1
0.22424499214369126	-0.5167964455332761	-1.3371050149784627	1
1.265033073707124	1.2971036699492806	0.22014355723101645	-1
1.983735675796757	1.326177010602795	0.3509785568140036	-1
-0.5341934393667611	-0.06849953505896611	-1.871052116296501	1
0.19193471034209225	1.055851706885912	-0.3916490345909849	-1
0.6358321587499305	-0.32943519699240437	1.0849357701468463	1
0.29945659335003716	0.9805723685712584	-0.10373034084611427	-1
-0.009375485896523443	0.15644430433367246	-1.0759665631729622	1
-0.19374703967385212	-0.6281585482141402	-1.4542737225718736	1
0.385253470906477	-0.35040929003573523	-2.236848322472031	1
-1.8801311276581925	1.2029710860237715	-0.060780661060734355	-1
0.013983613588234531	0.0967228382339246	4.232429383588832	1
-0.09941384733961131	0.10968358207751933	0.7986421960319809	1
-0.3449096808276522	0.1979276155325927	-0.05091771507469607	-1
0.230092786962275	0.34969263993439964	0.6865573836939642	1
0.3721518087864576	-0.18761630675021718	1.2577428457677355	1
1.2990518106103632	0.013403558614501092	-0.4658119767728178	-1
-3.5583628000675827	1.149712856131309	0.8189824385006369	-1
0.9708326384941988	3.342233586157271	-0.20225212608514412	-1
-0.6168154091299831	0.593057040228858	-1.1185808082226367	1
1.7651353352334445	0.22928162938203314	0.13093394235210554	-1
-0.15778432641723575	-0.06339703051160878	-1.834434250765467	1
0.8905306400391316	0.08341110517814006	-1.1865701437429972	1
-1.7274738765891515	-0.9225812168716089	0.1431596560310581	-1
0.3646629367341934	0.6954341237955052	-1.3445937437814142	1
-1.395049649044919	-0.11987228950757711	-1.515163485664478	1
0.2508016852495308	-0.30280448994484277	-1.1705466759937613	1
-1.7808963286972326	1.6151502762212093	0.0834504922154224	-1
-0.08832598806213973	0.17578849053097423	1.3049761135983031	1
-0.5880267315254495	1.681811902733335	0.3759137415583703	-1
0.20350816136770417	-0.652010743718947	-1.6827305076552124	1
-0.14245877599386858	0.2849159836391919	-0.4591927894559753	1
0.2753629878798572	0.016886083139736635	1.6961058968388665	1
0.10209036953074774	-0.6348706861347155	1.4581021487629287	1
0.18479217859551855	0.19324451011129198	-1.0726379117949303	1
0.8912126361101909	0.1933752993631635	-2.0005497668300567	1
-0.2193822177506473	1.8019455444051469	-2.253827288037275	1
-0.5709057720446281	1.4954031159763161	0.3389584579149985	-1
-0.2240944137932861	0.21706218012212	-2.2057687500457632	1
0.7297482425531512	0.6112967263015944	0.2413019215193683	-1
-0.11865880830221098	1.0912896073676357	-0.5516300762258854	-1
-0.3619580152496986	0.1555941659627228	-0.8503428217270281	1
0.47452535404524143	-1.2486922471191046	-0.03567487587984279	-1
-0.2877760885922037	0.12439062096349862	1.967346317272686	1
-0.5717352140446091	-1.4581796126734368	-0.4182143986103995	-1
1.0903815261481307	0.3116461173354444	-2.4398523306184288	1
-0.5362490147079015	-0.4433317866239851	1.3260833792754145	1
-1.5042805450058672	-1.1627970876372764	-0.03815997949105852	-1
1.1605536582315679	-1.3737813246662047	-0.04221424628001095	-1
-0.019423549764555247	0.3254251786420906	-1.2092780536669236	1
1.3926395919534933	-0.24283138671335647	-1.5102001042891349	1
0.10461284261381515	-0.3186235534077744	1.3465626073954617	1
0.31468821963423727	-0.14561702739379506	1.6769981197550323	1
0.3834707332747713	0.4259332659043285	-2.3044745932693433	1
1.8129634864874218	0.026165961929943964	-0.10643624863106588	-1
-0.8845851161568979	0.6803167358801697	1.6949348390084182	1
0.23953386446810437	-0.1405462518950151	1.3805216437166898	1
-0.02670728975830082	-0.17149981668677916	-1.005287592323331	1
-0.4829335592802453	2.1461080995841155	0.4974374622202705	-1
0.46009698353672024	-0.31583099343685767	1.6104926995337296	1
0.15619608294667642	-0.16934741923432617	-2.0216258329234793	1
0.5355852720109311	-0.20221279800370162	-1.1878243483767685	1
-0.40086573124395253	-1.0206512128817256	2.729942502853412	1
1.2099139997600221	0.43608871019494244	2.80607206237799	1
1.5062575226996118	1.0131749600477602	0.03807962888333455	-1
-0.47582661286432615	0.004024946994918554	0.953108167647212	1
-0.185994482304784	-1.5840253023800464	2.999156544964901	1
-0.6658913936020132	-0.9617248668547032	1.1817337224331446	1
2.2906529287996005	-0.4019805102818229	-0.005401341353250998	-1
0.029295098623456826	-0.7590282249578514	-0.8891671497954732	1
0.17299686929197716	-0.2532003287825234	1.424857732798296	1
0.333555898336722	-1.7601094232960801	-0.6972801600393947	-1
0.06651225640317456	0.621406968148234	-0.25603328063374264	-1
-0.5983775599697675	-0.02361666457628567	-3.089658017975197	1
0.218639634923292	-0.5731284440526143	-2.222469938230037	1
1.1197491479541422	0.5860576463361066	0.1684326573987667	-1
0.008213674685714677	0.759979310206624	1.6570392591650878	1
0.3384604049473559	-1.3424972997700428	-0.24558642448951976	-1
-0.41666795491007674	-0.3395600774814094	-0.7923078976289745	1
0.7524499327443852	1.282439189280351	-0.6397115522082344	-1
2.100806069816734	0.6041947878834872	0.06435044141789656	-1
-0.05594687750341011	-0.43609017438641706	1.4971987063054917	1
-0.30693759503632156	0.5042350764196819	1.2453781923988878	1
1.1417320004201779	-0.44422322217497223	-1.7621893721732003	1
0.024563162481105905	-0.11853122150832802	-0.8201828801608368	1
0.46152692657599426	-0.47487692661832415	-1.5491741291873977	1
-0.5439649012814175	0.4688181376673933	-0.024996447115795982	-1
-0.32047456717164857	-1.1466357867249453	-1.1979352152749176	1
-0.18424846034021183	0.7549401153036764	-1.3410194065003012	1
0.835970717100115	1.347980810826717	1.758515480546392	1
-0.035620855404005926	-0.8115785496098696	-1.589987575104101	1
1.1032924941739353	-0.04568936230218222	-2.713518289165846	1
-0.14359535191314304	-0.0010773754082489544	-1.4446836292988947	1
1.1492651397971714	-0.9871791314896898	0.06422095768761306	-1
0.44306108254997556	1.0058222532316707	2.717717879803107	1
0.3486662287562608	0.9221721776268846	-0.17399410185830555	-1
0.15876779851223438	-0.03732067782715383	2.048555296527997	1
-0.010774114313373566	-0.43748168358646566	-0.6540920631493943	1
0.3636423681120414	0.9394168034124417	1.488516452425435	1
0.09155510518369354	-0.5673689836249318	-2.3616343078438455	1
0.24969358653154142	-0.45842342291635685	1.1035851057762145	1
0.7914426537816751	0.9927290380562922	-0.41510236038938186	-1
-0.554423169070164	-0.4746027682624188	1.2069582997820827	1
-0.3127910839989049	-0.04337088202829559	1.5879719166840505	1
-0.2612492473188043	0.25555731730477005	2.027991709291908	1
0.859968398657705	-0.2229197463998688	-1.5214204079506266	1
-0.7030777122770266	-0.7837880349673303	0.1007881826432039	-1
-0.7703806188979703	0.7935959140674305	-0.1719566346113537	-1
-1.5904845369794167	-0.3508425216410332	-2.102387860679892	1
-0.02773138097347997	0.620398411741345	-0.6878361943640653	1
1.832421841397648	1.5154135760890641	-0.04995010772866557	-1
0.30954116152814415	0.8784449148237692	2.877968052790579	1
-0.1249379678998353	1.6366115373283745	-0.08671048692918999	-1
-0.1563595730770888	-0.31296776301776097	-1.1288788077977157	1
0.4668666324106095	-0.007216723481881536	2.15051070520042	1
1.3519068812031718	0.4583293866330105	-1.2805852177559909	1
-0.28745602088864564	-0.6528338911692231	1.4131971704212065	1
-0.387808116706206	0.2693575421446014	1.2814882922990283	1
0.15397613410744412	-1.4216873053988905	-0.3347454974247853	-1
1.168144882387168	0.2513422623775604	3.2142017548816337	1
0.6129353329756632	0.8516122331484702	1.7125797392811384	1
-0.08580650694595388	-0.19824600766446465	-1.2485335761403806	1
1.578948343410827	1.0370928839717686	0.5484714794708669	-1
-0.03853553052361959	-0.6354945694894092	-1.85407839681374	1
-0.6723051178424649	0.250822327815423	1.3643629679912186	1
-2.5611647985886936	-1.085914732020044	0.192410447795047	-1
-0.6544805085615142	-0.22643113525593755	1.3874815125644187	1
-0.13161456456489157	0.30113881011653293	-0.5429916096560663	1
-1.0991775654606575	0.9342993185202927	0.023930526778784676	-1
-0.5229470672555858	0.0911491287047812	2.677687957580618	1
0.31069414377915233	-0.10394260403990803	0.9352986129168603	1
1.4831758230806247	-0.8600223968238581	-0.17647901540597427	-1
0.07383260441592823	2.6230043414193345	0.5836354392303159	-1
-0.7965451201234184	0.5127484683430363	0.276733618518064	-1
-2.282658375860852	-0.293462969971754	-0.32688039409259206	-1
0.22907271485818176	-0.1767366171295235	-1.2675261842025494	1
-0.03791438908778785	0.04271812412033483	0.7011182269603895	1
0.18618890531341886	-0.418566572369208	-0.6921717234063867	1
1.3573895276638954	1.2621197087352498	0.30095737698084785	-1
1.3596657731420665	1.0756107076888268	0.24693967302359743	-1
0.28035193551090887	0.22314871302913122	0.7466970356933129	1
1.215135407182955	1.303475371362242	-0.7024043490932185	-1
-0.23042949916407	0.39813999169555	1.5244826497530763	1
1.1897861419855587	-1.1361281931420661	-0.5229028554685979	-1
0.32055498092140206	-0.6848810565324462	1.661275633057768	1
0.23040717693886897	1.2373271984650853	-0.19820937334969424	-1
-0.76354383771621	-0.05520396865076083	1.7535311967282992	1
1.5790198373504796	1.0200539695974702	2.857536381690543	1
-0.014372389038637887	-0.5362434647965251	-0.9409168950674035	1
0.10915829394527855	-0.6096596756779058	-1.9165563590219015	1
-0.18123031400663553	0.6680488474215911	1.4991650771445546	1
-0.7241353088429376	-1.198351958563639	1.4884798771104297	1
0.24935090060849555	0.960631629684266	0.13340327214146186	-1
1.183989643253077	-2.780060092804917	-0.7964778497691165	-1
-0.8547206327767084	0.10645057709703878	2.753989929878311	1
-0.531986111804621	0.6142972378918414	2.110100732950941	1
1.8878883709426684	0.3369861683633366	1.773506646545066	1
-0.7616568507609345	0.1406330789513836	-1.308121179615838	1
1.4780613431921634	-0.5678691551202192	3.5221052128233	1
0.011175948350849688	0.22731215790759768	-1.0286821254580456	1
-0.1220347224255507	0.20099237435689898	1.2234373874882325	1
0.4711016206845081	-1.112440627675964	1.8023164435773182	1
0.5954569221273401	-0.6739222701339249	1.4534545965635708	1
-0.5864185298026178	-1.6276710689427065	-2.609006584917883	1
1.736867070855146	-0.18682698452735372	0.45078068165418445	-1
0.2601466537391127	-0.0825750751951253	1.0698794972470644	1
0.354385603592408	-0.7346656174309634	-1.8898117363592264	1
0.047308827992286535	0.6797164789544177	0.37117356169365223	-1
-0.034031554384915966	0.044449294220056786	0.6437890154924181	1
-0.18774275886647934	-1.724781228637733	-0.08907710296786439	-1
-0.6513886318096183	0.653693070153368	0.07764048087580631	-1
0.1501182025619049	0.08441334811355097	-1.18205013491515	1
-0.08107497125649982	-1.0708599184000895	1.2325238749810956	1
-1.6069859181793469	-0.7325964366537228	-0.7700765174954627	-1
0.06418646081611472	-1.4777099668354485	-0.8971305355861257	-1
-0.38956886591530815	-0.4297022917009392	-1.3904596099405042	1
0.22992913957064426	-0.9558834588187912	1.1718802605120753	1
-0.4224638060763495	-0.09479343797536197	1.105734199661736	1
-0.0453348990400358	-1.0107838438692052	1.5229313966597249	1
1.3565019756847794	0.37393887071727133	-0.17696535318684858	-1
0.019265682398146803	-0.1224390317909883	-0.7423117940002886	1
-1.5033967416910166	0.6045857108486199	2.482393097608847	1
0.3019001433746229	-1.436332145803882	-0.02291345799090512	-1
-0.22223460786832666	-0.27226224992393866	1.28035561475411	1
-0.760450601227445	0.8087459410485321	0.1304719455068981	-1
0.0291286830366118	-1.7399533528395958	0.21395127536005326	-1
-0.5562669076113413	0.7573592456936211	-1.174950655943305	1
1.1496304446684844	-0.494620237059646	0.3665914665710558	-1
-0.6306360901502821	-1.1299984117217288	0.559991448094367	-1
0.04226659185003995	0.4906931537512633	2.525615388137307	1
0.7690496293712576	-1.2916391030868077	1.605902520219133	1
-0.8714685172185535	0.5553484541628195	2.318094928775151	1
0.9469918666274566	-1.7757888492263592	-1.245206299341842	-1
0.3390961545558424	0.9608863976914114	0.4617310481517028	-1
-0.3573946364172201	0.1625716094088248	-0.6977100075888536	1
-0.5264035624059329	-0.08034801414843162	2.216863860201956	1
0.4265051869058819	-0.18852988348200672	2.1706323557476592	1
0.20495452196595831	-0.38257145374135165	-1.596722461591995	1
2.003643499991104	-1.4842221562328843	-0.5501354145859422	-1
0.13173730872997544	-0.812471412175783	-1.0881764463915937	1
0.5202322000748963	1.599266060167404	0.5878065168584123	-1
-0.3551635240180331	0.6707395927555423	-1.4373780519257902	1
0.2531381199844074	1.2597529254732769	-2.4447174395441698	1
1.386992476356154	2.9465005873420624	0.5248615251151162	-1
0.2945085161425102	0.26340752344852264	2.2759923372380886	1
0.34071188868942526	-1.4038019935231203	1.902063987371996	1
1.1514539242912925	-0.35271180577461997	0.05108736093999897	-1
-0.6216249861690204	-0.02567149292303946	-0.055405321881728795	-1
0.09522926155723367	-0.7128463896240957	-1.7375072597339865	1
1.2078332835551309	-0.15716184917725887	0.37992847471095426	-1
-2.009857862884053	0.6690367312027776	-0.23587362153791916	-1
-0.7757719954152617	-0.21300503364767015	2.352368732423918	1
0.8226364192782861	-0.3137739680897987	-1.3079588627273349	1
-3.1193023626207426	-0.9709781097597048	0.6772742285378104	-1
-0.004173668105437193	-0.618723438825483	-2.663499549630707	1
-0.034346427502082	0.6845579956161214	-1.7198916220981744	1
0.3836390754463711	0.6912730486175771	-0.9589081759986878	1
0.29755453853686453	0.2625795892879361	-1.384229065316097	1
0.8399754761200386	-0.2538868937708453	0.12675992319628132	-1
0.4198935794016315	0.8214987550476547	0.031021692306331596	-1
-0.021068951411844727	0.062269845864704146	-1.9278740345595078	1
0.0024284642777178413	-0.06825579205873192	-1.4086102640840141	1
1.7138313015544129	-0.2707533301759765	-0.0028017530485905887	-1
0.12577500187721918	0.009354951793488159	0.9268546933538501	1
0.44675920072541975	-0.08992858087139284	-0.9088013144795083	1
2.019672686564143	0.5020391880379488	2.2209835874950095	1
1.183018663223634	-0.23081802544465996	-0.05209475316998037	-1
1.8248620262612472	0.02205802804721979	-0.9400013060684312	-1
0.4070694472911126	0.7742303660708082	1.08584939919829	1
1.2079060687005407	-1.387078533130125	0.8803608790330366	-1
0.41873877085413486	-0.7324043513693814	1.9565957088100439	1
0.14982908291487948	0.21900998594734833	-0.6310814805074156	1
-0.8667517379125808	0.2224776558485894	-1.191191941210241	1
-0.6157315273615425	-0.6321341389435517	3.4030611113301736	1
-0.5709491479597412	-0.49595642539796536	-2.598506960502788	1
-0.14167060790639918	0.08268503297766278	-0.9293166278420397	1
-1.2621980059622901	0.7637798775139466	-1.8860739722026634	1
0.883693840204788	0.9437447001869261	-0.38006845360507213	-1
-0.1478841258187863	0.9049959777123698	-1.7738104247843058	1
-2.313896493704264	0.5558438807262311	0.6128905106292021	-1
0.44066751760653755	-0.9673479873177897	2.7916124336604593	1
-0.847350089425866	1.2714542716566224	-0.10784716988369548	-1
-0.18468130468948232	0.2544153900795323	0.6370337935104121	1
0.5359423986519811	-0.06017992366442913	-1.3283854026324486	1
-1.0332650868424693	0.14869908359984182	-2.3758958759539714	1
0.4370237304678349	1.0370369503355363	0.29603826972509223	-1
-1.4467628608146346	-0.3159821328243918	-0.3235868025232542	-1
0.0855182517384	-0.0481714885659128	1.348052488900605	1
0.2703084337844953	0.038431051282999174	-1.177832888571961	1
-0.723986274620582	-0.7658273613004548	-0.3156706907696175	-1
-0.2821255876284757	-1.341281835861076	0.48774007829494703	-1
-0.07939106103922085	-0.8345091109511518	1.3458875035776705	1
-0.5780792710052793	0.4151404203557536	-0.16848691828263188	-1
-1.4606472059377273	-0.6259798256879715	-2.114848040685164	1
-0.1363180810655289	-0.19479323980616675	1.2913962824252614	1
-0.5780835468856709	1.1926865346039595	-1.447512013172052	1
-0.9197145694490065	0.27959789061437973	-0.28267007825599394	-1
0.5420778176129775	-0.5317832825395341	-1.1909251915567045	1
0.9162051195987686	-0.0719143536317449	-0.10970415824774955	-1
-0.6761783581607024	-0.4159962862152845	1.3028315386727651	1
-0.7259922217520215	-1.733438643356934	0.1671386221983261	-1
0.5093566957464919	-0.43104321080348323	-1.3908086145921206	1
0.837230603599437	-0.13578155686299048	1.9624214138744196	1
0.0672682979466219	1.1639019826440404	0.34146259564344916	-1
-1.9954341096434898	1.5577656439273984	-0.0964133044298497	-1
1.6617365307335166	0.3312322711790255	-1.846673011314466	1
0.23312041520584315	0.7157839989133068	1.1015751419950377	1
0.387374579441534	-0.057950887053464024	-0.6870582742567515	1
1.2270072862164312	-0.7168163647038466	-0.011735278144737746	-1
0.7359106871917618	2.666446368877605	0.2160771307667026	-1
0.03378837040399874	0.24390646826201406	2.0303664629630873	1
0.45556871929176057	0.8277535812071506	0.18633267956793442	-1
-0.5587238202745253	0.12491206020205287	2.163563523737537	1
0.7612555240351124	1.505412247814319	0.35510638728197025	-1
-0.9223226629337034	-0.17883028447599236	-1.2852877406240322	1
-0.34042475696656993	0.5563502271807288	-1.1254968398328284	1
0.019140626016608923	0.691475696179107	1.0700696206965474	1
0.24971393258109603	0.3125002786226979	0.7099953113820026	1
-0.9096179398657003	-0.9788350099662877	-1.3341395391333806	1
0.8665095488174652	1.793516701089573	-0.05766553956724334	-1
-0.3341247419799779	-0.1823872444071482	-0.5648383971150857	1
-0.032075931318458394	0.37806558874476404	1.4625223858487513	1
-0.5114011610185886	0.2637934295072746	-1.1467779357860772	1
0.5556760115021936	1.2637903841100502	-0.11004776026164216	-1
-0.05358720658314207	1.5507724315840934	1.6929799651278326	1
1.206778114838989	-0.02904088235295141	0.41280252166256615	-1
-0.14348851145213654	-0.4966359260754848	1.1489423157911967	1
0.46362090994163363	-1.0217497523058499	0.4380897631194132	-1
-0.3814803643660256	-0.47029328666149695	-1.1564056552642037	1
0.04973245271161705	-0.5160931172082152	-1.1926038068380995	1
0.11100117133225576	-0.8388758577836417	2.4148210627480595	1
-0.845430172659023	-0.7458766671210296	0.3922808137847265	-1
-0.4461707912969838	-1.5824590997881143	-0.2074904398662739	-1
0.10489618277816387	-0.403219916118161	2.0873426427858233	1
-0.17359906604058328	0.6044316054080229	-0.9803001119721415	1
0.335054112615936	0.061873894613811715	-2.0641692487749452	1
-1.545436989431445	0.46719481128702467	0.4266294746638131	-1
0.41536629487575616	0.09573553724728069	-1.6217906144914918	1
1.3885408300825361	1.0814731986269535	-0.43249078822599696	-1
-0.045562219085596246	-3.3888447592222883	1.594939145872638	-1
0.1024168654654718	0.3880154456280747	2.2320311776887487	1
1.0683883710301296	0.2103235516704039	-1.8802984209439821	1
-0.8478091596731578	-0.5458147662506573	-2.9507163775718777	1
0.26863573212675784	-0.043945545565229394	-1.6946200866461543	1
0.356621789004523	0.13992739960808676	0.9910697448123762	1
1.4634530604184326	-2.525557214096435	-1.0409513631078693	-1
-1.9372730053493934	0.7242007259393655	-0.5814749477186827	-1
-1.911642820626848	0.4197235683113669	0.7110082879872435	-1
-0.7929450534118718	-1.9215359388270703	0.5036337814216533	-1
0.3417682904407803	-0.4038445799458702	1.2056862727343498	1
0.10780053523376631	-0.5851957275961807	-1.5989286698096894	1
-0.5791409956175224	1.2458326454534756	-0.08024160999647115	-1
0.27582221830895043	1.9788637996209302	-0.2403449388845659	-1
-1.010058392787153	-0.17291416318157238	-0.20861715611506498	-1
0.18782650381682647	-0.15396001706108414	-1.1898292786474527	1
0.22531659355382155	0.15164827540612616	-0.9274931206061319	1
1.6644889817827928	-0.28738781120898593	-0.1060499430141937	-1
2.058184399969762	0.8741457975809488	-0.04450394670991376	-1
-0.038832450126565485	-0.23458911135436328	-1.0739896628450767	1
-0.6294160456956313	0.3427943498269009	-0.9630546793278213	1
-0.05478729869000369	-0.4544576122503129	-1.2346481405424274	1
-1.599467264211503	-0.07703431161453561	2.396388030026772	1
-0.36370332111792264	1.7574486648863892	0.13187647206179082	-1
0.33566887875682194	-1.0415436872613109	-1.2609844788805806	1
-1.0848838032805905	1.9207597351637375	-0.513525144925472	-1
1.531315391182668	1.3202778035488287	2.905532377946491	1
0.7362803662224088	1.324951459218347	2.2529340726738685	1
-1.2628053175487606	0.44468186440508484	-0.1959776368096543	-1
1.0432524455788603	0.21751814487520119	0.03257314972906976	-1
-0.2370704193531509	0.2028108970137591	-1.0187520956941802	1
0.2759297047695657	-0.007782213559776368	1.5737720777979773	1
-0.3177568701997435	-0.49322555599206974	-2.359722020804402	1
-0.1297286129707497	0.04422608874062055	-1.4280690124118087	1
-0.6447543907362342	1.4790715207691734	0.2776524660421825	-1
-0.8642287356746663	-0.9968753449576389	-0.3608534403091069	-1
-0.4484237346031375	-0.69975475075939	-1.305288069753217	1
0.0769734905259072	2.3089437132315225	-0.18213679817270034	-1
0.15217278381169613	0.22466938445565215	1.0407205055167164	1
-1.1093328389728874	0.3448164427051984	-1.7670574063690467	1
1.3103507858716	0.23054230579561225	-1.6764020601498255	1
-0.6033934081269898	2.423028647304659	-0.301711234647282	-1
-0.4956697770959544	1.2823242889504176	-0.5481753205311923	-1
-1.1362878064951913	-0.629795589134823	-0.052955919090213646	-1
1.5630405863073817	2.934163637046443	-0.6938540072740569	-1
-0.5668211116758332	-1.1179964804620621	-1.557949287836792	1
0.12228952664071407	0.2516801608192828	-1.940869345886731	1
0.6114750547204334	0.030780848975961745	3.121356452096736	1
2.285437901334606	0.3384250180130138	0.017825822384100562	-1
-1.5310868677621965	1.6991441547470827	-0.460587630709949	-1
0.40476626926712	-0.7757060807722588	2.2222650937746837	1
-2.537260291915064	-0.270187682819845	1.1721764481624684	-1
-0.5917837606084599	0.2914623293996491	1.679363378992272	1
-0.15334461391552942	-0.8621324971223927	1.2908732314607396	1
-0.5190151891789654	0.16561822786730673	-1.249141379324362	1
0.5579340047389252	0.5733267792232595	-2.059968700063931	1
-0.3065237725829538	-0.38614080859356054	1.9647879449984595	1
0.13543350394962267	-1.7594090873118131	-0.15181719166912494	-1
-1.3580351903441994	0.13347598747993364	-2.748371997150998	1
0.456836310320787	0.09387949124205171	-1.373194849203909	1
-0.053430472206363336	0.051215251319791495	0.5864853765534612	1
0.15967701575136062	-0.5166589787483038	-1.8110162529893015	1
-1.058867681814654	-0.34462276892342103	-1.92718981764442	1
0.48123940162509127	0.41815100901001123	-1.9707253291523248	1
-2.170924666085618	0.4759750865664354	0.1345258303305419	-1
-0.2465358514528594	0.1107315813888882	0.9715255336424231	1
1.7944334775322308	-1.1812218832477608	-0.22933305760970707	-1
-0.08754179403482493	0.22077567425066616	1.7293473002414466	1
1.2205420272175413	-0.587587546741821	-0.429602098850636	-1
-0.3061003316535931	3.015627100185224	-0.3721724305885159	-1
0.08794330550658641	-0.6851477006452625	1.3420864186171428	1
1.9348755775688566	-0.65724952452954	0.11056724325894651	-1
-0.6313377265313629	-0.13451333826449485	0.22318930281800942	-1
-0.976197307373024	-1.1283814496109177	2.5327082862977277	1
1.7025101694266873	-2.1708319264778124	-0.11313589640732569	-1
1.2485040292637455	-0.2336866304148778	-0.06015583611559428	-1
-0.8531898487002387	0.09575110463472976	1.2225158518480919	1
0.2563967325674722	0.33843238292519257	-1.3463969630171226	1
0.13666124999620397	3.8887325875222456	-0.22778195156306427	-1
0.43353265243684064	-0.7691643813657248	1.5836445098745342	1
-1.1441588557214741	-0.7384287459504711	2.067895582196432	1
-0.2817739510096589	-0.21026662659021184	-0.9623856666868736	1
0.07601691305775862	0.7981184117981113	1.620413031473705	1
-0.3543448831582499	0.5868517380129885	-1.6946102827566734	1
-1.1399513336543854	0.40652745396157136	-0.2884814863505316	-1
0.3021124106004385	1.4541035302932954	-0.11574837744419415	-1
-1.547306748354401	-0.1746292946955753	0.15527572261052053	-1
-1.7192108288970362	-0.7696128874110113	-3.279462818500918	1
1.1260132510101968	-1.3476843897107145	-1.9446943521567797	1
1.044877828123243	0.29534340569327927	-0.1579427085484847	-1
-1.9116705022010634	-0.45646690562739667	-2.3327383094190854	1
-0.17781136467954675	-0.6212999369895509	0.17578237621324505	-1
-1.1773421627570864	-0.8540124591804378	-0.22581791612856017	-1
0.5266065971122169	-1.077228060112933	-1.3203817279005905	1
-0.7993339020938227	-0.2992111788084477	2.0650825548754828	1
0.030236307753708325	0.06094658306724628	-2.075556041422436	1
-0.36138084571467133	-1.2080728623928285	0.1856710739439571	-1
-0.8941882743251673	-0.9768230893553121	-3.2268752331726995	1
0.7382658223045766	-0.690061891601508	0.07848556469592431	-1
0.14341872625789093	-2.7492441406542802	-1.4119140282845128	-1
0.1902625797462037	0.4012221307066744	0.9945939766519049	1
0.0892278508237053	-0.5800136939623393	-2.931263121382504	1
-0.08027076671252983	-0.0855041651488728	0.7537375403056502	1
0.025091320764092293	0.8268499229194052	1.496617260107882	1
0.635127446429933	0.13668919932359908	-1.1874228161858862	1
0.6255662892380115	2.4499961012421827	-0.6448902442083857	-1
-0.206285014644164	0.001556509743317073	2.412900542520558	1
0.5097823355227693	1.3964168749935997	-0.4293693918958156	-1
-1.417278960636164	-0.01643990517260606	-0.3225302874654188	-1
0.13040257065186878	-0.3476364586750127	-1.445077583388363	1
0.5008977539833734	1.9864239899277996	0.023515572397838153	-1
0.15182849087869135	0.029674893435142645	-0.9056804532871252	1
-1.2246561248498637	0.3181090265853734	-3.341172850077689	1
-0.3743297108953343	0.0203043359463789	1.2642271938607312	1
0.08340774673188874	0.3683489152219461	1.7752021543341086	1
-2.851717550275806	-1.8493690642090428	0.1845145909451682	-1
2.086366757238818	0.6928056354968524	0.686305356910105	-1
0.09388362049662902	1.10185541570248	1.7417258442966148	1
-0.8925642717756462	-1.4937955890408	2.020825083060993	1
-0.19905696484929683	0.32886458882178976	-0.9694142275125275	1
0.3240855832085381	0.06753734277347359	1.4657924046689028	1
