2.469973331056412	0.7371833587645198	0.032389498925825565	-1
-2.29878182300959	0.5823728409123486	0.4014030875921967	1
2.2948731656252033	0.26865798037308053	-0.5154338687553619	-1
-2.7873984050413085	0.9742628698733125	2.0525010001370387	1
-1.6306071630190484	1.3238578154672296	0.4729117936629573	1
1.0113757999704123	1.0643384267083444	0.4948323628594302	-1
1.619073522201773	-0.2150001322052726	1.398059333508827	-1
1.590989259299675	-0.42650378144433404	1.291989270931297	-1
1.7808893493502786	1.349850884652748	-0.25168009019645143	-1
1.7681393491568382	0.9662425646253099	-0.20074263040753015	-1
-2.1418183609604506	-0.6711703570109173	-0.14046807399276656	1
1.0620018836000304	0.9823793684338639	0.2863650950910697	-1
-2.085997314386704	0.7724738016346153	0.39940262000630067	1
-2.814518171868502	-1.727671262367814	-1.4433688517405137	1
2.194777780584412	-0.41882406383681464	-0.3986918845839972	-1
-0.7269647555177434	0.6981723265840217	-1.2915417976335415	1
-1.0192676142168828	-0.2446005753741181	0.7467858620065766	1
-1.5163285427909188	0.8298160790554252	0.07864274836039938	1
-0.9821802879182862	-2.3044730171689793	0.22735953006162846	1
2.543993642498934	0.9830640766522888	1.636575172895396	-1
2.559050792027294	0.0032145256700803594	-1.5811656153281188	-1
-1.0343449551133324	-1.8329852695341233	1.1107172620425474	1
-1.8282095036952795	-1.2495346011483617	0.04068479813064391	1
1.1485738802911727	-1.3667352841633735	-0.9945126770206041	-1
1.1500716653938587	-0.6772296595039682	-0.41228005302715776	-1
-1.1767516848559174	-1.1113238226294573	-0.5010736524911024	1
-0.674895850139071	-2.208220539084046	-0.7356638814718932	1
-0.09278611761228492	0.40179113397093325	0.028495040365004668	-1
1.8348499374588205	-0.6715903500261101	0.9765707686251958	-1
-1.524291847290141	-1.1433127383999433	-0.11886471294927256	1
-1.408640281691029	-0.9650777954659759	-0.7221183198503566	1
0.7243688713081833	2.086104671992416	-0.3581548220605003	-1
2.011150682630295	-0.8907778543378783	0.3639865854016993	-1
-2.007766768253041	2.206426542134672	-1.8231332733341707	1
1.209234388739595	0.7368596411775903	-0.7727504547572314	-1
2.257749224171001	0.42895980596643357	-0.6076072169391181	-1
0.22524225769555728	0.06651752743033588	-0.013955755230419562	1
-1.6426282483234902	2.090377636283885	-0.8266722108808182	1
2.092202997433873	0.8332423982869593	2.270791979386967	-1
1.7445013155611635	-1.6444909863645256	-1.842693342827184	-1
-0.78507663006293	-2.2880359227723908	-0.8176757443453031	1
-2.309983436880068	0.56889467741896	1.4492995482344757	1
-1.1585717206031156	0.19351901196913715	0.8669172915795222	1
-1.2630938053433476	-1.2200790052483383	0.9236455643720554	1
2.5322157210173755	0.9777138700272219	0.04015695177337916	-1
-1.2282644308581192	-1.041341977091222	-0.7989924793156511	1
1.4479535292004588	-1.376887505812655	-0.06255044808948237	-1
-0.4140726373293618	0.3434805219893182	0.04292982946422822	-1
-0.24059612415170978	0.07189749398786138	-0.2773303016476007	-1
2.435304737436459	-0.9127887066053293	0.7613948916712602	-1
-1.562126086316943	-1.0000803662431181	-0.3383032478471275	1
1.6287014197108252	-0.5207079741553151	-0.46086539198726906	-1
-1.6597245837122607	0.5244100683547941	-0.8184854982834545	1
-1.2301386447995815	-1.0231612796091043	-2.955362833326072	1
-1.2980523521193639	-0.7666033103261392	-0.43359333780727294	1
-1.9450769542363457	1.2402071591698374	0.002836422059266917	1
1.3949707284264563	0.0029165443827995005	-0.042887302190448895	-1
-2.3542959621872006	1.4980913639586189	2.347690611975052	1
-2.3971078108615025	0.6101989095958229	0.633257790725062	1
-1.1715768836846077	1.098896567351611	1.24346695226439	1
1.8376513786258388	0.9634967051136512	-1.758538468798843	-1
1.7579042297694276	-1.005445293605264	1.14683779420759	-1
-1.3965774865210627	-0.5182445882368338	-0.0818216826846337	1
1.662175884588626	-1.688758603658113	-0.604705821693476	-1
-0.3678801194853274	0.12176975551241231	0.16343545754207903	-1
0.3024350233489994	-0.022425476813311147	0.04189655539538104	1
-2.759434972352911	-1.3119110763526214	0.5075934594759941	1
-0.8020783998812165	-0.8212164310289887	1.0562863017561328	1
-1.3025676978623966	0.618371316604952	-0.2939788933540707	1
-1.603914767914244	0.19584005518106018	1.1250398575632672	1
1.184495729727908	-0.4725557066700295	1.7671662805400967	-1
1.6231998826178833	0.02291786604026396	-0.5612520203481945	-1
2.2874364237896434	0.8732703436294229	0.41695294883432515	-1
2.9409089636780696	-0.554661415019161	0.5701059138214418	-1
1.6986679767633226	0.08631769169276671	0.06399109494084058	-1
2.572802782867969	-0.22695000050287706	0.32223748585920176	-1
-1.3093692228267546	0.33498539755040146	0.2717389832209097	1
1.125984221962187	1.0913697738184134	-0.7222956704990282	-1
1.8039496484816455	1.0896529743126036	-0.04196297898245041	-1
1.4280322964931842	-0.8776120622310832	0.11745544654358382	-1
0.6590172452263772	0.6547822374052672	-1.7651992045759761	-1
1.7261286431495173	-0.4230200591320904	-1.3705307903078632	-1
-2.1311427269068073	1.3763997523317357	0.9342498199709695	1
1.7990869257209665	-0.6864423156416433	-0.5275933390046015	-1
-2.946698978872452	0.6928530393989139	2.905896425964815	1
1.4722173082734955	-0.177724947071536	1.0456768881081855	-1
2.363268812151223	-1.4207084504601108	-0.3489655148259002	-1
2.306246834982759	0.08478207942143928	1.3499926725969378	-1
-1.2737268979430116	0.2516373845271083	1.2261613616552702	1
2.1449832429598152	-0.9775674317566827	-1.2660106409467955	-1
0.9715751768667893	0.7613985225281059	0.3601403422944942	-1
1.3948697874448723	0.8963991204779649	-2.493947278127535	-1
2.003445047591925	-0.6295420123089421	1.3968501735458263	-1
-1.1714989720352724	-1.289713437082629	-0.9813691519568242	1
2.034652962724081	0.31786055791654383	1.0322347243856411	-1
-1.8490219265059578	-1.1427129565985914	0.7705444100357262	1
1.500757656205351	0.19725241269404475	-1.0936495328960203	-1
-0.3759372890223608	-0.38778903153105754	-0.3533823799357554	-1
-2.5449590642864193	0.6545061263393086	-2.3582784324684445	1
1.455955546783809	-0.6292349714670833	1.2877221178845546	-1
-2.960452585643982	0.7193467310686497	-0.07866620379288697	1
-1.616202491445682	0.30966509940248244	1.262060041832147	1
0.027298260746945184	0.4319090320852117	-0.4179502211430798	1
1.327573175087525	0.6267813625879204	1.0141201208687338	-1
0.3452837871203013	-0.10560362075593913	-0.3087846526849788	1
1.4413733964292341	0.6105802682617125	-1.1937059581213574	-1
-1.2568631060580644	0.6167080638635181	0.8669704511710743	1
-0.32844943384220116	-0.4637053881706642	-0.187550239428437	-1
2.1556627771624983	-2.0372489975910515	0.24099276883688026	-1
2.722468395461914	0.3289687044032583	0.017215562051125323	-1
-0.4720463549997269	-0.15041802788954947	0.4877820197484875	-1
-1.3948587198232139	0.5906249359873206	0.6630838161969472	1
-1.3075560889742883	1.7746289383830631	-0.07232406607287195	1
-0.431996126308931	0.9865038021199708	1.0509093150946658	1
2.4659844567984126	-2.416231643647466	-0.1350179558199453	-1
-1.205930303272686	-1.8824558926066817	0.7905730351552875	1
1.8738545917502627	1.1151922686461782	0.6768255243277008	-1
-1.7961283053858408	-0.4570947174819525	-0.03669360668881559	1
2.3640770287314368	1.5040377741594724	2.2933963572675085	-1
1.5000000178301862	0.7753682267529443	-1.1843792965088342	-1
1.5417456162275764	0.7167185248029915	0.51623259283568	-1
1.3654149909708935	-0.3366346034370398	0.8874938338432157	-1
1.798239451035203	0.7993871906776424	1.0775756640997325	-1
1.5723210342816216	-0.6199236253855297	1.046535106823542	-1
-1.5031020036087623	-0.7621344382831405	0.3915821584511013	1
-2.051825078990626	-0.913160958086123	0.3285326739217002	1
0.5495840116856254	-0.14428312915620817	-0.028957129008932644	1
2.231703512476496	0.42825793850467464	0.6042746572484013	-1
2.873023729522709	0.2496755834552961	-0.2574396225357719	-1
-0.8494962963150537	1.2118847108315651	-0.431138189952458	1
0.5306287963131708	-0.23379905699069994	-0.25089541310672075	1
2.1475160377458438	-1.104348510085914	1.9815758300375794	-1
1.5689510337484447	-0.7294428758933114	-0.1360699185013067	-1
0.660409700792978	-0.15482559016726236	0.23889816202943742	1
0.4172271444042653	0.3005153530857292	0.04684538746264846	1
1.3680102384910584	-0.17670117411026912	-0.0058672006292879485	-1
2.933092244152278	-0.3000559666752076	0.25884342346944533	-1
-1.453294366234914	-0.7515663726792619	-0.9063700456321647	1
-0.4723707462337326	-0.0929659823682641	-0.218485388810293	-1
2.035930037228262	-1.5017550781901656	-1.0008089737436041	-1
2.389328359229484	-0.23197863706245536	0.25641522649166226	-1
-1.3210840914065214	0.18442652689645445	1.775930305794689	1
4.124527435619823	0.3369363016007373	1.0239564254483762	-1
1.2701985236213282	1.6144826652134407	0.5026166991632323	-1
-2.619322933016946	-1.5052911625640315	2.0866387863749543	1
-0.9357287063446674	2.4643020477817057	-1.7229903742429296	1
-1.3134880035045244	-1.4638213021596274	-0.24743354739682005	1
2.739907626164033	0.8102836390310788	0.5331639740398675	-1
1.4634779552170127	0.9388261887760281	1.6258428639585687	-1
1.8678407093129776	1.7919213059660157	-0.7790720875240649	-1
1.4599127734433657	-0.5216942030443215	-1.8189331578129133	-1
1.3105439430875867	-0.23715990284120073	-1.593152706406629	-1
-1.630981487850238	-2.075620522707699	-0.44782495466018296	1
2.0229821118587425	0.4122576186936571	0.02767202069374975	-1
-0.1925021046587656	0.21138950908983292	0.3693723318115314	-1
-1.4776694811696878	-2.8976153388280252	-1.782959985859603	1
0.258538187112824	0.29465768906382706	-0.38090907146238273	1
0.5161723101020388	0.2541245056557446	-0.027365258563476717	1
-1.8883168908390975	-1.3729394217107596	0.48667891979081623	1
-1.2432251393266989	1.0419352977294873	0.14263039489757792	1
-0.4547320010929583	0.7962158125372052	1.1806850852369082	1
1.9574760748838416	1.5367479536562947	-0.31118377110480133	-1
-1.325516500367181	-1.0631093823682514	0.30224387366543093	1
-1.2958898027110228	0.10098733344172428	-0.9474935361641714	1
-1.3913299185806358	-0.04664564048955639	0.5179465643586386	1
-0.607385338663378	1.4243781108375935	-1.2621001872595257	1
-1.9601607789811244	-1.0058536422513278	1.510162849908149	1
-1.0490924865059545	0.36252544988266555	0.7536617654368607	1
2.7182411977392893	-1.0361012402785024	-1.967104158313488	-1
2.1333004735606638	-0.8855845486520272	-1.7593781098109837	-1
-0.6436669294470863	0.1584165138804671	0.14158162195981905	-1
1.8795496869656925	-0.5425961379359792	1.350797201639191	-1
-1.522885918856717	-0.02939785983101658	-0.7144866900105452	1
-1.851073514155398	0.9859511098055235	0.21445754255566907	1
-1.472622102129523	-0.5894127092243193	1.103708810277884	1
0.7351924500970775	0.025683580693033954	0.3019786482774216	1
-3.0298037044959796	-0.10479759654076022	-1.8327482990600754	1
0.22570646516137532	0.06870239412109866	0.03204095139002336	1
-1.3811470406079107	-1.0177048417598882	-0.5493249414507704	1
-0.9206580570911235	1.3993398985976908	0.9094461774433517	1
-1.4251965033529832	0.2766724799450403	-0.7364609092184252	1
0.902281095989973	-0.05497047686276897	1.6857056603582703	-1
-1.6769428915258413	0.3906483448078846	0.5456425299104353	1
-1.4392955720165093	-1.0808673021930761	0.45792146015989754	1
0.19539030464337817	-0.5370131285238136	0.1740924715686994	1
2.5898028643750957	0.8649712896735778	-1.0349669080911186	-1
2.5881031004279924	0.4288894117617044	1.6740317119659764	-1
0.5788776409847393	-0.14108774501152874	1.421244362453895	-1
1.2363114171415996	0.29362629022316056	-0.63316839960497	-1
1.660138021261277	-1.9082581345273946	1.4648793603071226	-1
-1.6844832250789727	-0.5242073274034493	-1.4322779221961162	1
1.4731318529518718	-0.4074855691401576	-0.4743358907953603	-1
-2.5644099984042485	1.7087329328448537	-0.16035082965287212	1
-1.855480054932002	0.49875561335888574	0.788623139376047	1
1.168791114443544	1.811545347677129	1.1291452336363625	-1
0.9820457121518971	1.4888822174310055	-1.128742960550279	-1
-1.2793234579253643	0.6543009391979169	0.13761548745789473	1
-2.1214772235642645	0.030920516666781007	-0.9326172669062849	1
1.8534817266053518	-0.16563550331169588	-1.3381817956224282	-1
-2.375743976755556	-0.3902732292073286	1.6469800269909158	1
-0.2103667774011322	0.0991363272750923	0.11324162282320291	-1
-1.107729677801449	-1.033706480840642	0.34898179346397273	1
1.8285934133325124	-2.3874881766535525	-1.0166914066745283	-1
0.5308878112126234	-0.3034578546523981	0.3987842599869027	1
1.324314987555579	0.7248951618340143	-1.7251034599408703	-1
1.276060194960798	0.5471127214790694	-0.25937337505566244	-1
-1.0147504661014681	2.240747746780987	-1.308867263155415	1
-0.5398604331740005	-0.9724863518216278	1.6722485508136693	1
0.48425247604068	-1.4169036000313757	1.5452508616915996	-1
1.8245389577173854	0.6568912329214327	-1.1447293689623534	-1
1.9827777231110564	-0.6030114633038054	0.6105535347418192	-1
-1.607035574965303	-0.8639492943868465	0.23114161814389717	1
-1.4413097078683803	-0.2625094285551797	0.261677254457818	1
0.9816195310161185	-0.6717430416116827	-1.2139516216776391	-1
-3.0530725545164135	-0.48315936885578414	3.4908124739022295	1
1.6064717588092674	-0.41623347248879194	0.8870195694518547	-1
0.9623961903448972	1.2887665331581097	1.766287609834378	-1
-1.0934647132133533	-0.8212383546066097	-1.2561355952290625	1
1.0038332258092062	1.048800928952223	-1.722762657214764	-1
-0.7298674592016616	-0.8080343291854644	-0.9572873529837467	1
1.429246784094332	-1.7731682538702818	0.6283561215401359	-1
-1.4029487879803402	0.7322762150476955	-0.9687413794105157	1
-1.577367344708189	0.02629096462924293	0.3803016461686537	1
-1.585242023002008	1.6661834339966721	0.6058041659070141	1
1.9781842604907909	1.2782859067952992	0.37285892768934037	-1
-1.264042746488959	-0.530682678133511	0.9429357193389217	1
-2.0299208156687683	-0.6205548443268335	-1.1178072202633875	1
-0.18526398005323344	0.40596317807267457	-0.19870521143542433	-1
2.132155233497448	0.15280340184343855	0.04199503435753541	-1
2.5868582540195932	0.8710403326897911	1.659032113278064	-1
1.231885334324872	0.9096530642355721	-0.8650382224999189	-1
-2.513734164942545	-0.27622832621353066	0.5500097724676662	1
-0.36996487151841484	0.6719551503791259	-0.25457274765641	-1
-0.5503804593224775	0.19118367529902242	-0.21134014369407994	-1
-2.300020276127389	-0.07225513042712098	-1.853006977269642	1
-1.8932086068590723	-0.2799012767031632	0.6259749386154972	1
2.0116700125726656	0.731375080833737	1.9924803812184817	-1
3.6091139897584505	1.3869679607222207	1.4134713485171533	-1
-0.9373437518193926	0.20413010967776085	0.9905699391977851	1
-2.1921090714866645	-0.1637975385025001	-0.9143254705314989	1
3.1617892898982314	2.534009835713577	1.4145173223121426	-1
0.8687440192253233	0.6502500645839648	-2.0845697120103694	-1
-1.63896582740999	-0.42732470164831377	1.5191001454388502	1
-1.5111736348435942	1.7476011727062741	0.17912994704442323	1
1.6899879544655625	-0.3417324782998937	-0.44623341201272126	-1
2.1391821870017207	1.8280930957648511	-0.3047566577488533	-1
-0.3587211493259381	0.08534935945010094	0.14503198504721856	-1
-0.7721802991106027	1.0920540751259713	1.5685876253162427	1
0.9911571549925173	0.9557464439873492	-0.5938128348129215	-1
-2.799979303737708	0.43811775315785756	0.975594919971982	1
-1.1216294617879996	0.050467468607601436	-0.5432109937078475	1
-2.420077009456626	0.056658941354680956	-0.04205059761537218	1
-0.23614126419499548	-0.28557105306729447	-0.0654826603165936	-1
-2.6996043346488037	0.04267213304847313	-0.05423337897470491	1
0.96256488274739	-0.806982479142827	-1.6305710510076201	-1
-1.0032059014170882	0.7362690713281408	0.6430807979667228	1
-2.1060348604752304	0.7181780326706667	1.5174804245638465	1
-0.46263606471833213	-1.1989589427952059	-1.225361928682879	1
-0.8601799988989486	1.2481775581793217	0.4792027286861194	1
1.213476047589268	1.1023618021381332	-0.19652104338695836	-1
0.657412165719888	0.3149858562531139	-0.1145680462735453	1
-0.7741189061186557	0.6910011455764973	-1.5770729399233816	1
-1.2951873951487975	-0.8597466250550538	0.9621358058417309	1
-1.998834776605141	0.41016373912907095	1.294333173975464	1
-1.022436379617839	0.6208262100931684	1.1271073035164836	1
1.817110126888092	0.4296028774918286	-0.5167862375630841	-1
-0.2995324302051821	-0.11692239836919874	0.18575661618849174	-1
1.1801625050429438	1.222858320956491	-0.9606779689735143	-1
-1.8238994495243586	0.440805128308952	-0.5424773273911864	1
-2.1107523963263968	-0.6461084295003352	0.004005982750230228	1
-1.0904528684575567	-1.9873565750989735	-1.0724166232695553	1
0.597205334688234	-1.5826574694365363	-0.9532020647025559	-1
-0.233205673364737	-0.09881375411705946	0.11780318660041252	-1
-1.437922434770533	0.4462324726188712	-0.29454786685562107	1
-1.215859109476082	-1.4228158686134027	-0.8304376800525476	1
-1.7640592165945965	-0.6847524521800188	2.249498542228195	1
-0.7766249600800659	-1.041394483149935	-0.7243870844814266	1
-1.0667979565511263	0.36414950807170127	1.8150924320911033	1
-1.2376898109379812	0.6143960282642377	-0.2557561287729894	1
0.15452124851975627	0.37227090991116796	0.19454843402851257	1
2.2165876480016533	0.18514598982194808	0.5612299811910354	-1
-3.2193907783662064	0.11095133995663205	-0.5711588982208364	1
-1.5766791014162673	-0.5968319047832819	0.8293224435405624	1
-2.5135144774006912	-1.0908861746169773	1.4436542378237427	1
1.1843603500841329	-1.3108036484926564	-1.555464332587758	-1
0.8027215481290859	1.2866106363238452	-0.726044714895335	-1
1.2683788292178888	-0.4267331860377284	1.4071064043814059	-1
2.5466219774573586	-2.0132945789425687	-0.045112732587092946	-1
0.225748883238578	0.18834706086282907	-0.2959231307205693	1
2.8166001084588936	0.32940956860352943	0.7601059842738132	-1
1.6796453844872103	0.22205866709430436	-1.1422864508609736	-1
0.1708088277648504	-0.2072352941123366	0.12617293288513853	1
0.812891321816792	1.0964872541889996	0.47838421142374066	-1
2.315819986522873	-0.709899500378822	1.73582011667165	-1
0.7667856126952917	-0.5355553220613365	-0.888973204563102	-1
2.3160658262365423	-0.26708505862773846	2.075373237667682	-1
-1.303874419173952	-0.8152287060114354	1.3086881062355151	1
-1.524051843235898	1.6978456077558244	0.7683148206146743	1
-1.13152785596554	1.3706386150963223	0.03791900456850664	1
0.9932014838802397	-0.8919776550945848	-0.28075375738934943	-1
1.814275012938475	1.0544476309688557	-1.1744006275785432	-1
-1.223600963422304	1.6199593795810154	0.4912987782828542	1
1.1965321984234611	0.8229260134570249	-0.9292492398303649	-1
1.3190545138239624	-0.7922959763583821	-0.4053893321493489	-1
2.1301646414987525	1.103939872793451	-0.19150083418513802	-1
1.0126835401491046	2.2432468323245796	-0.17700890483211923	-1
-2.4241869527953765	-0.6394334608559764	0.33746760968748013	1
-1.0669860719066235	0.6406338386816521	0.26489483356528554	1
0.7529472736753552	-0.5241514454186488	-1.1398766364210053	-1
-1.955124566228402	0.355628555364816	1.1475739202574327	1
-2.2475563912610927	-0.4032999589756098	0.6958776562226434	1
1.989377823465092	0.18495377517825606	-0.039615695178188415	-1
-1.0326833764461334	0.5571342037417579	-0.5992790302392752	1
2.0310668674090513	-0.9198329835910366	-1.158466927779041	-1
1.1448297452838845	0.667357131909582	-0.825454626140938	-1
1.0530727309058086	-0.7821224350977595	0.6141670590174272	-1
-2.3863117771157474	0.8533537024429194	-2.499111886229474	1
-1.8644121897907473	-0.12553103101242483	-0.7240711023552296	1
2.3154900189342014	-1.4162603322410672	-1.431781702879515	-1
-2.250104376443254	-0.0416040779864172	0.216290154769212	1
1.25178019324274	-0.9962624116768574	0.9231840625006434	-1
-1.7696452105034477	-0.398734480247519	1.364255503275249	1
1.8385554627152598	-0.7924397332077833	-0.28479830136747936	-1
-1.2665807919630616	-0.030557838102124514	0.5552494099936747	1
0.5059122147920309	-0.0248337394844472	-0.35654727587920126	1
-1.587360193574421	1.4199223950079443	-0.3184047177135798	1
-2.7300594256470108	-0.8580271127860064	0.7038880671647554	1
-1.280138557737907	0.08251830617846433	1.4407053643720238	1
2.053300129640464	0.1964888688488523	1.9485539768218179	-1
-3.1690369305904356	-0.042554696922726856	-0.9455232305688566	1
-2.531448396457928	1.1832760553016604	0.7265862274539178	1
-1.6928739159733484	0.28844588972039287	-0.3769427621458064	1
-1.1718971520657449	-1.3506573265607353	0.6246668222554634	1
1.7868656462072292	-0.4200271255407025	-0.3089950484738167	-1
-2.1473409158199956	-0.19417796700612625	2.3616368961388474	1
-2.327133660765974	0.45186101363002895	0.5758254806457404	1
-2.7716698127453103	-1.2311517124664875	0.30667426712067286	1
-3.2352485004867946	0.4793124471565589	0.35476867954572133	1
1.3319210773459833	-0.21090020505341672	1.4631847357108239	-1
-1.9399587071742925	0.32230250799870813	0.0543283325320863	1
2.9744351214084066	0.16022739276447498	-0.008017063843116172	-1
-1.635801973427684	-0.6506386661355911	0.598324683386718	1
-2.1542060514695054	1.0452868913820046	-1.5389055061843595	1
1.5017244729967079	-1.1604306843486918	1.6235764122446306	-1
1.6266011265785218	0.4708028733699215	-1.0029902930079653	-1
1.5526362604354942	-0.6967063382188378	0.22835392627468198	-1
1.531553824021136	1.1325829502285663	-0.33768272122299847	-1
1.7366097189189607	1.2196718749643587	-1.4488494969060692	-1
-3.4529771537141696	-0.3086265595198232	-0.1399839501435408	1
-1.2170802297228493	-0.9117369255873126	-1.7174099793029467	1
2.591844682971632	0.2617221805693422	1.2204637883689609	-1
-1.101538022220442	-0.21624385554703296	-1.6006847533094115	1
-0.18964803679954415	0.07665989533202804	0.08664616861822969	-1
0.9328239032049744	-1.3719274192471391	0.6877652495072248	-1
-2.3409146633330695	-0.9918300307957955	-1.224474006494468	1
-1.6317772873301692	1.8736261271315897	0.34893083020460525	1
-1.5873188987229008	1.124725180053179	0.3890651017291479	1
0.22271629425158962	-0.1835715107620806	-0.21571260778308335	1
1.978802307799753	-0.7824124392375231	-0.536168911941137	-1
-2.2795350713912037	-1.1529833309907815	0.8637107319987978	1
1.3866117873107706	-1.4507759359017003	0.5555142480880275	-1
1.0975985185800234	-0.49889934596268104	-1.7206991319616356	-1
0.2748683004549418	0.29914218764915074	0.28012581251430707	1
-0.6257693504995994	-0.0443665781641098	0.28563788911662413	-1
1.0235488320313542	0.860531181289335	-0.4986686966843635	-1
-0.888025439316262	2.010801456692937	1.0449458760188266	1
1.7002554828547354	-1.0173636920319078	0.02457471166318315	-1
0.37755500244968754	0.028834811651514112	-0.22611138611091652	1
-2.6677343200478196	0.9512558017171466	0.6610491923466288	1
1.8012359288150572	-1.4569705145802079	0.8779598143749334	-1
2.0470870810676907	0.2374881605056647	-1.4929273633046602	-1
1.033780227305575	-0.8846247305687378	-1.3715178945109767	-1
2.36859960861087	0.2915541583440948	-0.06035145714599114	-1
-1.8176147429774532	-1.5403106784375427	-0.48090877394710374	1
1.7495895884634234	-0.6646463814749355	-1.3628230057788813	-1
0.14429486633130773	-0.2552287432977045	0.41648040123304947	1
1.4633162528618073	-0.24276324067335456	1.4738980095475214	-1
-1.4555633797499694	-0.8417281308307115	0.8117335187470714	1
1.3202339151661044	1.0302524535346755	-1.1324654636945668	-1
-0.34852120330662817	0.2853732947430594	-2.720381859492294	1
-1.651717769070753	-0.43840186190823016	1.421557725272786	1
-2.079710586274772	0.7529696038314345	-0.0848651145677175	1
-2.4153752819797596	-1.1959090532107077	-0.9921896130460524	1
0.8295903819795425	1.2887491187178226	0.08955859357781723	-1
0.7891724537897673	2.3264697359084923	-1.2496789383665747	-1
1.834418776806913	0.5714203217455136	-1.2577056642993316	-1
0.3486010546722299	1.5185949831214094	0.5302725731184451	-1
2.099007616002419	0.4106301376861193	-0.05847054038907704	-1
1.994905909062728	1.373009767028826	0.40180236772293126	-1
1.577267310664614	-1.9632524858949	0.9837165105583865	-1
1.9365351706164617	-0.5563184445413387	-0.8052402718260512	-1
-1.1402861382769944	0.8977935860800105	-0.5562296090096306	1
1.852075891778821	-1.2957344665739405	-0.4793441768501798	-1
1.0442564485858634	0.43176680448326377	-1.346092053659321	-1
2.232798998772735	-0.4817308958808172	-1.0688594508263556	-1
0.3901853757588364	0.350769552458597	0.12361565680115506	1
1.786870575120226	-0.23279821486276323	-1.2042211210678757	-1
1.653876974881702	0.5053793588057391	1.3073072539291837	-1
0.30019409160997296	0.225747301200928	0.7162585193373703	1
-1.7377784990225775	0.4446503611685602	0.4115453181428992	1
1.646873619165294	-0.6042619612160239	-1.942270699060295	-1
-3.1201994016623322	-0.9557366300243786	-0.7627024212450018	1
1.698921964835453	-0.9921861861739298	-0.24105247090351994	-1
-0.2007667299848992	-0.1414929611839309	0.16287557884434306	-1
1.4307628253499933	-0.42315232960301563	-0.7643164188367658	-1
1.172789643503847	-0.18659108380008962	0.9725357537160347	-1
2.4911154149066568	0.5550386186847069	-0.10085624265712674	-1
1.8712188457665664	0.34060478077329176	0.8265314490051978	-1
-1.9364771358211352	0.436854096169707	0.20369299983683142	1
1.5922827355877545	-1.2155001504231484	0.38035920523641026	-1
2.07374528686765	0.5312084629350287	-1.5706631596006804	-1
1.0364817645079238	-1.026463739871066	1.8810441897054562	-1
-2.2853904385940798	-0.9545082936238911	-0.8021273585889045	1
1.2966476127820816	-0.7897728465743585	-1.123032689103501	-1
1.2380384846004016	0.013998682114112421	0.29318529629303397	-1
1.412217011629124	-0.9746985027293432	-0.7872466229043729	-1
-1.8786931576558716	1.4207559750735141	0.27059658591885694	1
-1.5032978420023817	0.0108098768336744	-0.13028715377104305	1
1.107884639147935	-0.15831098853597247	-1.7881348267148494	-1
-1.967538592859253	-1.1160012713406338	-0.6468082044776464	1
2.515469395713367	-1.1703214355799014	-3.9556543011635963	-1
-0.6105845174431013	-0.14567508136318813	-0.35644278549021347	-1
-1.3555413912276504	0.8082648815039941	0.5029183206236616	1
-1.8326346952766015	1.3773220465032534	-0.6222679064318475	1
1.4547109470150295	-0.3818505333064497	-0.8570217008602379	-1
1.5672971784641319	-0.39079037556367835	0.988538202041954	-1
-3.148744541865942	-3.116464899736431	0.5201203664059126	1
1.6549659280320665	1.2409952450950614	-0.723422334371073	-1
-2.336366297455986	0.9481264123875204	0.5902518930519488	1
2.625808173175455	-1.0388899216734666	1.7974969130886465	-1
2.216986942782791	1.7769576025917124	-1.4297114076905268	-1
-0.3375491518649341	-0.000423915422161575	-0.49450630854532407	-1
-2.471344897708999	-0.8674474651113117	1.208121898626034	1
-3.372093651827452	-1.0260057918043461	0.5118499080473116	1
1.314469928642603	0.4535296182970542	0.897441334184571	-1
-2.0596749680531077	-0.7182670089479896	0.28361991192929703	1
2.568112737078007	-1.4613735907037535	0.2335937099144179	-1
1.2291696223911743	1.952051226337086	-0.09832207659425726	-1
-2.1154971664935944	0.5856887394246706	-0.3102485022475571	1
0.31521683867312766	-1.162693681948135	1.2526715499692984	-1
-2.0232490789043047	-0.7466342698483942	-0.4616870764669361	1
-2.097912666320304	1.8044688194539467	-0.9367846144394646	1
1.7665767498517986	0.2983793322625785	0.7730221083080259	-1
-0.2868775657006719	-0.18233306866949894	-0.18327066361240513	-1
0.4690970008731055	-0.6641652427722828	-0.19920173340307226	1
1.3633804922029118	-0.829584152495769	1.2359715201999402	-1
0.1923580414890117	0.5500179641016666	-0.15158270054401835	1
-0.7451683140286298	0.5820086156757072	-1.1914776713190387	1
1.749462321870576	1.50054120961378	2.052803228429727	-1
1.8164972555718741	0.2783453129931086	0.2523194488102087	-1
0.7067240396792159	-1.1774187152797335	-2.641672773427149	-1
1.665553664587723	-1.7311561367552306	-0.013703143074243265	-1
1.2040580942865144	-0.5318824249719881	-1.7046771329503418	-1
-0.9250324155590515	-1.4781249104620717	0.7752852362885566	1
-1.744642006563516	0.7691751219399455	-0.030144877126358858	1
-0.3186584080840962	-0.23981089658475074	-0.1652997098259566	-1
-2.5173103765711202	-1.6354907914310737	-1.121603752319582	1
-1.068593365621293	-0.4477650774287978	-0.4412926610064328	1
2.115102799977015	-0.14069898607269218	-1.9874533515418211	-1
-0.9937578997983667	-1.5040594647356942	1.2062754574473644	1
1.8122950858401885	-1.0211815058119802	1.2373154447667314	-1
-0.42905395198979984	0.12213426785247647	0.1407579004701436	-1
2.6130006605347846	-1.9143504978387684	-0.13289898121459565	-1
-1.8142914305660032	-0.9266947298281055	-0.5968885673453819	1
1.2244219279093085	0.012262366446411436	-1.0971092710975736	-1
-2.022276367934997	0.8399057058296348	0.3551429470179382	1
-0.2667548846382156	-0.12244430390419893	-0.11687005172769145	-1
1.590811914416251	0.41877831156867784	-0.4256611429236473	-1
-2.009411409550053	-0.4962644755545661	0.5860527223183167	1
-0.8257163145966173	0.4867814239263147	-0.444813154594801	1
-1.7159295634927356	1.0799930956181558	0.6553067806553373	1
-1.7509884239431728	-0.09388925725276817	-0.3066855493329721	1
-1.1275353863615045	-1.1715344075485479	0.4520374604315013	1
-1.990527116577133	1.242913184734112	-0.208763087128781	1
1.892229092343822	-0.2749395965072969	0.8436177809258135	-1
1.4694965226632175	0.18770633867959732	-1.2512443558984438	-1
-0.3204664774323947	-0.4138442601796255	-0.1054529858857371	-1
-3.074160477065342	-1.1915416487815371	0.8850803808965875	1
-2.5157862543038485	0.6919373542446681	0.6487567604821598	1
0.9543984348932067	-0.12913154835037527	2.315972377589378	-1
1.8835858200004343	-0.25627739188039994	0.7039938689734054	-1
-2.1105276980636822	1.1523713499163821	0.19387757029499153	1
0.6830981288463036	0.33313392370982287	2.075553910824632	-1
-0.5439405306892898	0.04342799634194425	0.40770510977106755	-1
0.9627658661314049	-0.16253945100281292	-0.4457384523503759	-1
1.097912762460153	0.3483572472835	-1.0318174469567323	-1
1.109196303804775	1.0353272212769002	-1.1934135683663085	-1
-2.1166602995074064	1.851096527482504	0.1178703781025868	1
0.18437850757772314	-0.3725306161365343	-0.296790815600225	1
-2.4293180196676967	0.9430267940764187	0.9459801470707436	1
0.7368761890729116	-0.8611912933957764	2.6149221700009058	-1
-2.672055719342137	0.6083393983481443	-2.527310865622668	1
-1.506680579184746	-1.8808680404118423	1.6410519436681033	1
2.5778554611753814	1.1908691303711014	1.5906165809981287	-1
-0.36940492500411715	-0.43878254836388975	-0.008087376114381307	-1
0.8948532883368846	0.8748307126845791	-0.09072115086105798	-1
-1.616993864845049	-0.836390701588616	-0.5072661752925642	1
-1.1701047455973261	-1.0851356239376717	0.9840884104257596	1
-1.4800868933706472	-1.2890534068976505	0.39271751299611146	1
-2.1186028775240326	-0.5074086614220792	1.4374154203052651	1
-1.2931001733633485	1.8057932631305018	2.482419886028671	1
2.239260318281733	1.2430053836238062	1.4796827979766445	-1
1.7299552123261055	-0.8850217504110733	-2.945927409744013	-1
0.6145422423112268	0.9236838212724583	-0.8759236972426245	-1
1.2294504528915453	-1.1140235637760556	0.8631928735904181	-1
2.0126552135305067	0.43260912932712975	0.11695126257503996	-1
0.9594563034087691	1.1294596178316054	0.7725703987281071	-1
1.1288212194949216	0.49484521038912244	2.4407673308521045	-1
-0.843638238640459	-0.3954575231205091	1.7785887676952656	1
1.5092123392342907	-1.1204968497258974	-2.678341295042836	-1
-1.654022032467524	1.9706151870965982	0.8460810289410632	1
1.498498888372363	0.0058083697725685906	0.30505410789251736	-1
0.9340042268822333	0.6867162078080243	1.0445280242669532	-1
-0.4370727031005764	1.443592140302902	0.3042502631830187	1
2.9729759952953625	-0.6297916594235187	-0.6937817396922067	-1
-1.3041917456929413	-1.8050435640107214	2.1421484010447034	1
-2.238402310395788	0.5413715731345823	1.1614125479465782	1
2.452899505183937	0.5393698293715695	-1.9170643155055331	-1
-0.21015592237524627	0.125809517758688	0.37882719940448367	-1
1.5517895232742465	0.44327442510841847	0.5764566820251149	-1
1.9446843498854332	-0.23565062804592166	0.8264025329326251	-1
-1.4938228159417362	-1.2731284592195946	-0.7506300449061161	1
1.4313670728303516	0.07017682517620472	0.6134001312841024	-1
1.6644657492767467	-1.6059427519817118	-0.6794269878927965	-1
-2.207698034242189	0.9246031774074506	1.445739721172465	1
-3.275861972878517	-0.6101874322338645	0.34575226012576554	1
-1.911376585412249	-1.014667946013767	0.6896019178144834	1
-0.35622654093932493	0.07026690322485271	-0.12063036993426592	-1
1.7984650625063354	-1.3714836667395507	-0.1112798691135056	-1
-0.418138929843595	-1.6760518818793495	0.4449952495437387	1
-3.1345151658668304	-1.4200472475156842	-0.411764873562374	1
-2.093326929114749	-0.5780810837539098	0.0479878074807249	1
1.9579251953385333	-1.7505051056248324	-0.3847972045931344	-1
-1.3247548756747216	1.583497689043988	-1.6836953958919214	1
0.3973023011690786	0.3577621715057182	0.22787463262526308	1
0.4121403077034281	0.042747467064583544	-0.36501910580002805	1
1.443338488468447	0.9441538037094344	0.45854349929340904	-1
-0.6976310727326014	1.0800268572691238	-0.9822262988201312	1
-2.4443378998547587	-0.2932801864375492	0.6954860719902218	1
3.4535420369411787	-1.7920161976245685	-0.06962655222365957	-1
-0.29504013265142603	-0.1559413164843212	-0.25687541146765513	-1
-2.8562145504215204	1.2324287127826405	1.4713139270779223	1
-0.9684107840340827	-0.06136955119993862	-1.514824508981309	1
-1.8752901097794652	-0.36346316997914785	-0.4339368861469919	1
0.32736862696822955	0.09610513905127861	-0.012312899959248025	1
0.36819288959674973	-0.23385193957006323	0.004402340179239655	1
-0.6759737936054282	-0.35275383751796374	1.5617914560930215	1
-1.1617930775010463	-0.17115299743735335	0.8050634118488712	1
-1.7893855707697015	-0.49181382015868524	-1.4267569466675787	1
-2.180079200667965	0.7258016606465736	-0.7995421465580527	1
1.5325571951359136	-0.07323120121032685	-0.5284324601332072	-1
2.138178877062983	0.9669432136051224	0.9637557596978339	-1
-0.6780473233411741	1.3180234507750948	-0.9311670602663875	1
-1.9334341520082268	0.7855984251707588	-0.48193189919584595	1
-2.0770011096534766	-0.9032817098135828	3.5584031509453062	1
-1.6494125590871618	-1.249236731282882	-0.5550380177818476	1
1.594435790004249	-1.441021397993358	0.23383596873640766	-1
-0.8753809572544237	1.4417373354227538	-1.380207062831936	1
-0.24400216834407057	-0.25706053056082545	-0.12019501322022844	-1
0.5688859596127465	-1.6777963664574982	-0.6841542358326369	-1
-0.3959693614936324	-0.3552823153206975	0.045289811995804126	-1
-1.1975087536751394	0.7369075571459369	-1.082688693129955	1
2.1665669555902634	-1.5292789475233832	-2.3882494093904523	-1
0.2561296910334875	0.10372622922553634	0.124493229532358	1
1.5016518542763484	0.8540148247972905	0.7450969174064983	-1
-1.3114341800735607	-0.8091333426211152	-0.7404790602634971	1
-2.4580680177048055	2.3680266717348166	-0.33567991833078603	1
-1.3604062747515844	1.7547735709604226	1.5239520642261444	1
-1.1106001582647662	0.3969334616588208	-0.38108184656862965	1
-0.6165809582627391	1.7496247861504801	0.4261214404362579	1
2.1424190216544003	0.042130769641159284	2.0078160876598052	-1
0.49693103460893284	0.750186175600206	-0.9933772711111666	-1
-2.017211326689705	0.4188649466075871	0.6108704860432264	1
0.34905788405993066	0.010735836061404214	0.05819362554305105	1
2.7381173101600664	-1.075384578641422	0.12740170271582898	-1
-1.5511465811967584	-0.4567732909778275	-0.696851493295903	1
-1.740174153890033	-1.1546948738057514	-1.0056674668093009	1
1.4440846004798678	0.025807882812275824	0.0687883652821256	-1
0.48126436108081144	0.8884997595013175	1.7085762105489377	-1
-1.2197061263541418	-0.002866077888425204	0.6278885152982114	1
0.9633853691773507	1.370643417230338	1.0403467951596446	-1
2.1530144948343324	0.3227841019221398	0.04435387405938378	-1
-0.16538069055038765	-0.15875202114120512	-0.14629523041622938	-1
-1.178781506723689	-1.290067922841179	-0.36486194236096786	1
-0.18471372884815235	-0.41051518476145743	-0.4190473626901541	-1
0.7935200373382107	-0.09491392385131976	-0.2288544977935476	1
1.817510083194891	-0.3764016633609759	0.2274585842495302	-1
-1.0214626547605796	0.7284179295598072	-0.6929948955415461	1
1.975367587741986	-0.25476169959511596	-0.8941002625777137	-1
1.2095375326245663	-0.708038637716546	0.6406083814049204	-1
-1.2942457470722881	1.7484274752743842	-0.15602796621871995	1
0.48394753185421774	0.3958459033945335	0.03878039443902466	1
0.7656581000556346	-0.7819855590703522	1.7479553932592418	-1
0.3148752475928443	0.6055492545317616	-0.9515333547200844	-1
-0.9400383110148846	-1.2301792052904985	-0.7007498681092728	1
1.8280758494241136	-0.09143747381051709	1.068049651979697	-1
-3.2590335507489447	1.866016066812389	-0.2564936502944549	1
-1.1473370843128752	-0.42140999646263033	-0.8256218358331566	1
-2.8572083144304896	0.35555262077200844	0.4211245111526816	1
-0.7791990815013536	-1.5787424031649042	-0.8437173315672113	1
-1.6921387078959793	1.8452998064833794	1.094065848663169	1
0.8143240437432004	0.11092358327081311	-3.1311496753373973	-1
-1.599813767749502	-1.03414765829586	0.29831906735806113	1
1.1077874721207375	0.7845066883926499	-2.0862102344432287	-1
2.0962800130123496	-0.5025059445477946	0.23621115636575654	-1
-1.9858008624879147	-0.16771576178569986	0.42079497444665936	1
-0.28881335647690504	-0.15566447798797922	-0.06844866950536374	-1
-1.874696592965746	-0.1492836984129976	-1.2812911780451062	1
2.5747407480817266	-0.04340043046552064	0.376625180733968	-1
-1.7481544898248835	-0.2402575497717363	1.0812695129403136	1
1.712585716068801	0.17989769737661715	-0.28322614442363403	-1
-1.046370287549236	-0.46068859248304794	0.8780743948687868	1
2.0274853594276454	0.3178786767382296	-0.6102241231790442	-1
-0.3735963379061398	-0.07963039312150896	0.007809153647903773	-1
-1.0076721963511974	1.1019589021463938	1.321794703149354	1
-1.6130601490940786	0.47474022905885493	-0.4055922425721027	1
0.9852818985132782	-0.8687176047493992	0.718443036437773	-1
1.1656544719265405	0.7340551437886205	-1.516940984815392	-1
-1.4160709631801816	0.01709574825413386	-1.8173990443588197	1
1.9488945541100828	-1.9510848164486785	-0.3373477022502622	-1
0.9608804023811223	-1.159369693382225	-1.6828363703716591	-1
-1.6200838105278663	0.5279102679755576	-0.4034398910669153	1
1.1321464820844638	0.7066445654883934	1.4083223619275507	-1
3.087420099477172	-1.2578494279550956	-0.9698525502072755	-1
-0.43279196682768917	-0.1505721191661033	-0.13853100871799148	-1
0.5960343170937022	0.24909877786522086	0.010767422088170425	1
-1.3221762238930408	-0.400568834839907	-1.1993304054332987	1
-0.5342656665485825	-0.4428122509433635	2.755295378325464	1
0.6798717372056633	1.2384659662015725	-1.2505997908947226	-1
-0.7459622664702789	-2.04700635247858	-1.0424553348932806	1
2.5381655792002866	-0.39559555434498783	2.323650996805358	-1
-2.0347506157687283	0.34487077743470973	1.2404447657229294	1
-2.1154212564770134	-0.041331284006249754	1.2429842430844977	1
-2.3721036350539553	1.3437232968305923	0.2777483939107486	1
0.6767290182996547	-0.4383215951254509	-2.439251131079307	-1
0.6409171762482286	1.0144545171394266	-0.06795240313651121	-1
2.208136755724972	-1.6814295696690333	1.274711746049748	-1
0.6079940138022901	-0.07828964201009192	0.30237318413032716	1
0.9607801626444401	-0.635464948531336	0.602847676287788	-1
0.9876707898960297	-0.10451131968107026	-1.157817296162405	-1
1.9402891364343056	0.30781158572967865	1.3915069788834615	-1
1.3046837316524509	0.26278442738355134	-0.8357679228357127	-1
0.5383314969282493	-0.3053916215678421	-0.09896025685276444	1
-0.7318331971298206	-1.3547950684407444	0.7920285453906786	1
-0.8541036084919347	0.8048858478933194	-1.0253355863177236	1
-2.624714915505522	0.9777491658322487	1.6744702523509978	1
-1.9946562141535717	1.00114572007264	0.7104960662255466	1
-1.8380590801226373	-0.31152367458219543	0.09332074400584023	1
-0.9463241110209448	-1.654184263733166	-1.4632210394336653	1
2.794185079276029	-0.9399064699528161	0.0060085465074259424	-1
-1.5462454541472672	0.09713011885702816	-0.7622022801261013	1
1.5019408877342955	0.9983070479499898	-1.2370068482408945	-1
-1.2026979553997286	0.9061868564434603	0.7647199956391606	1
1.1522031033536078	-0.30404498573560235	1.1703862537766812	-1
-3.6850023161248804	-2.1550965681578766	1.128707498124426	1
-1.6868671875508063	-0.1855115932472459	0.3920550247534469	1
1.8921777640589763	1.6406381376601438	-2.02655632617264	-1
-1.5347313746579099	-1.6417780315360826	-1.7136336730842665	1
-1.6356756933484982	1.0361435857520238	-0.35897319934793304	1
2.1721206341500676	0.776478867078932	1.870412611797237	-1
-1.1782911528669502	-0.787134861026392	1.175117336168382	1
-1.242635660597014	-0.6859160470717615	0.2605644097573385	1
-2.2886514655587455	-1.4350386164079645	-0.018825845269875283	1
0.3311655231934105	-0.38279726260716673	-0.029552567521361893	1
-1.3289061661087351	-0.8875300317475521	-0.7361139500607506	1
1.4723297619968059	-2.2515969408873096	0.010382920888670207	-1
-1.4680388035108227	0.330019204344172	-1.101529272385693	1
1.3170702430803134	0.19202544639756575	0.09087174371338992	-1
1.6222542251275016	-1.1227955180544298	0.6921504936339586	-1
1.8671450378872763	-0.9146171231723557	1.091884679196066	-1
-1.7644984462896582	-0.7145557895872737	-1.1678481834082073	1
1.2684858402151424	-0.14105602261452366	1.1793453031568615	-1
-2.651653034138849	-0.10467800023940994	-2.9406548720198247	1
2.291989220490592	1.400245225706387	0.4412756972766013	-1
-2.162107952749821	-1.2589620446710055	-0.6596488278733034	1
1.8153245666239934	-0.9024790555570246	-0.11106081208363507	-1
1.6823163147654034	-0.16223425236722694	-0.19988522724437785	-1
1.0807331733335088	-0.19383082078213834	1.6510441402979907	-1
-2.218832787564218	0.6587173891335516	1.3845074934790502	1
2.6066543206794255	1.1806453491546973	-1.1581235517275696	-1
-1.3485995750588347	-0.674758651912402	-1.4465586338092447	1
-1.4851845631901377	1.43472646527696	0.036016907523850374	1
1.5813267160773972	-0.6396244943461372	1.6053778555511835	-1
2.9392598320591654	-1.1999531773154364	1.5245514355286174	-1
1.3726705758973001	0.38163138520024764	0.9693158147777878	-1
4.263933729106853	0.0169871862347155	0.08973096403714192	-1
2.9938813347842803	3.0544867329077765	-0.08402787389375956	-1
-1.2938005461589155	1.696876278667622	0.548871657859451	1
1.515949898812634	1.1697345714959555	-0.5053488086597382	-1
-1.3206063475689134	-0.24454355872013184	-0.024899697663828227	1
-1.6872238048206887	-0.7842271741488773	1.0614636042194476	1
2.241357364774762	0.5928210505246372	0.7407724575640082	-1
0.5096987965728745	-0.053210355075501155	0.10631503775970319	1
1.0658848698630226	0.9327605289175428	0.8988652357664961	-1
1.6396533327059184	0.3714710178769617	-1.1315320666054864	-1
-3.17806817438544	0.2299881855251007	0.7307788634232862	1
2.032375321619297	-1.0300556431183598	1.3270273943595963	-1
-1.2630269947656483	0.1495834556016083	1.0682639168909693	1
-0.5522023234636325	1.1402739195473983	0.8105912543687697	1
1.4227063896400918	-0.6937603033166362	1.3389119252579436	-1
-1.2224851721611683	-0.2523050960308824	1.131259986126893	1
2.4160909213462034	0.8479024430173412	1.4149245232883543	-1
-0.7817736150405443	-0.3820256097569382	0.7662805249552759	1
1.5627409716512672	-0.16381166044688203	0.3830406524752058	-1
0.4247080344130614	0.12487293362499187	-0.0050954192847886244	1
1.2344927236180183	-1.106154392698587	-0.6573739537231484	-1
-1.7582834632029107	-0.6758084833627127	-1.2938753931393074	1
-1.8480156877681053	0.6581797374328998	0.5673624216923564	1
-2.778709398239494	-1.0480583127890417	-0.9811306356034787	1
0.520930682534286	1.0493528333357975	0.008692089702852394	-1
-1.668286374305811	0.5714917953962637	-1.7118405382431	1
1.385620696937317	0.5747828949191327	0.26137116230197543	-1
0.41513064863383337	0.20567563876417344	0.14246173059532055	1
-2.131441482300988	-0.8890951284577455	1.2078074355578248	1
-1.4505211678365622	0.01838344624903013	0.0979302798156915	1
1.2874583937858872	-1.4695846198494547	-1.3352557621519954	-1
2.0383473938222765	0.3093631397886576	1.3650392206553719	-1
2.3864101638722093	-0.8812571183738751	-1.3104991704476814	-1
1.7932984722352994	0.18843719138840193	1.1984246547324555	-1
-1.3133757344278032	1.0263606531317881	-0.30190964392500846	1
-2.230624560282853	-0.9366911219233456	1.4437067253974254	1
-1.2714189022624902	1.2700362712674136	-1.172056230237057	1
-2.126613077460755	-1.5555148711192013	1.05759726319481	1
2.46825369108237	0.7645998429790852	-0.30459514146603184	-1
-1.1233402507821801	-0.9632915400250628	-0.19977017573253944	1
-1.0650368303287254	1.2078627242290088	-0.7671878144543842	1
4.137103179917405	-1.8265839161914816	1.709511057242706	-1
-0.3578031397515643	-0.14001473752604038	0.16642285722725286	-1
-1.2689591208598694	-0.353728724737243	-0.719241238734592	1
-0.9218604787589073	0.32181879086069803	-1.0766534643335999	1
2.2117507530749374	1.3170221479694506	0.7440679361824958	-1
-1.583096824663889	-0.45312411540917163	2.268217582620382	1
2.1418533838418763	1.3149916782120725	-1.0043090298709292	-1
1.8557324898135263	-1.1827859842606778	-0.5259803697027206	-1
0.4232363519749871	-0.20240797637359237	-0.19953201399622494	1
1.4746666491235016	-0.2564313190682029	-0.07292857886384418	-1
2.0333473797777355	0.56864128236893	0.8266478665509556	-1
1.5024908989410666	0.048075379477846694	-1.4616100276561323	-1
-1.9150328933757597	0.5915954680682596	0.07614332566844847	1
0.872573211345995	1.1145314716751473	-0.7164965685988594	-1
1.1225067054658626	1.0777222022245099	0.8931017780450894	-1
-1.8276853037375864	0.019774206160532354	-0.11705173808613972	1
1.8014551014147986	0.2562636055225421	-0.6141902263670561	-1
0.24124461167128922	-0.013933168592362905	-0.351554046615509	1
0.12139288352424585	-0.0564024564028974	-0.07166075164735337	1
-1.4728138767283294	-0.9860164910532903	-0.244270455221584	1
1.7229274649435693	-0.39695530751329844	-0.4024914601046834	-1
1.2812799306795393	-0.6154065889344806	-1.0421131627926774	-1
-1.7702420900185682	-0.22145908641431228	2.0855497719825893	1
1.2799703728457414	-0.43495730011565836	1.3329309111987342	-1
-2.2056107104866918	0.25038369210503014	-0.4829955503018841	1
-2.03735024361115	-0.17694922849343686	0.1877804987670842	1
0.8802427534617498	0.09229488816605638	-1.2054592200500411	-1
0.9031924620120546	-0.8034660676402475	-0.272111113032974	-1
1.9557199358703996	0.23172044052867252	-0.338835986260617	-1
-1.469675798599437	0.870685390804054	0.3803030681592091	1
-3.3835687123420257	-1.0520279132170454	0.026820769843825174	1
-1.1333531933949705	-1.233667772820735	-1.958198590439531	1
1.1949709442115517	-1.3346993055766019	0.028656633095359308	-1
-1.600162411402721	-1.9830199751108017	2.0327906243669336	1
-0.9404584890324925	-1.0103889566146966	-0.2093076372793139	1
-1.5338701387149023	-1.4885493733384723	0.41804756929547304	1
-2.1062376310229096	0.09399025618464425	0.012380075691519646	1
-4.312908660029537	0.49323136669149303	2.149257554274046	1
-1.8849616845409036	0.6457385823924813	-0.16216910188079584	1
2.35578690954138	-1.3065084076647486	0.5609492869935827	-1
-1.3970018799066217	-0.930704726038179	-0.9721127257751624	1
-3.10923303654267	-0.6478977543771155	0.04636263693756687	1
2.1029745981970613	0.3787496731894562	0.3201965865614108	-1
1.7243178876261394	-2.2637139425065764	1.1984281871482334	-1
2.307583723609225	1.7616536386997028	-0.5467658212509218	-1
-1.448594876676939	0.7556744907800335	-0.636623270248986	1
0.30685177740063563	1.2313224968885361	-1.4142200205141875	-1
-0.45257420318950403	-0.3627786180457913	0.33200193413276813	-1
-1.9444862839151729	0.8397352607213784	1.5301949604498146	1
1.6618443460836425	-0.6250802134364508	0.2587432660565775	-1
-1.5442129267233717	-1.2080002558417138	-1.1233649675840818	1
-1.168681264913428	0.6899926572347648	1.512710625324352	1
0.4051149533099727	-0.3892062409500743	0.34725105115959265	1
-2.1689514818788127	0.1925658602390508	1.8347164788632393	1
0.3724518624133735	0.11458826025390279	0.28873694060804955	1
-0.5157577146280111	-0.18051907154628072	0.14860783021843693	-1
-0.3945124857002894	0.2689245739371027	0.1871065745224006	-1
-1.9394424075228296	0.9421375269913497	-1.431908794480542	1
-0.43753132498784064	-0.4316818130765224	0.0984268601374468	-1
-1.5142758590899457	0.40857088790228496	0.48531085808956265	1
