0.09567216770178036	0.5926212164481385	0.2887281441318491	1
-1.0306700633211259	0.8116759710122907	-1.4149862978391021	-1
-0.4677710419481627	1.8787676791008894	-1.257657389151027	-1
0.15952715091102193	-1.1757047635324054	2.5978129829621417	1
-1.7809498547097289	-1.4060966810106437	1.3806148586267133	1
-0.4321211356777535	-0.63768876322675	1.8880643159641395	1
1.81506349849192	-1.2514536458650456	0.5261771926086093	1
0.3594697188868415	-1.3604843895972583	0.4618089247233649	1
0.616745503983791	-2.042684757713104	0.4751213797880093	1
-0.6998723117136294	1.5317752113963439	-0.7562039606919488	-1
-0.14769901756125714	0.5499637583134654	-0.11442669896280569	1
0.5731800745552142	1.8543181853767607	-1.343694294786741	-1
-0.5364152637600286	-0.5945367491078075	-1.1852478608455037	1
0.8097627951364578	1.844651943031105	1.2921442296559196	-1
0.20996331995049355	-1.519545494504966	1.6954527374437487	1
0.36526581764504745	-1.554361862599325	0.2721381555520639	1
0.20928277433233333	-1.573911893763103	0.18265970298112322	1
0.6908824971406543	0.5677461407539516	2.096341049224141	-1
-1.0023984467180211	2.131675857111998	1.0473500449343365	-1
0.6930356490104788	1.4539383438525468	0.33577753169822816	-1
-0.38128361925165744	-4.27638364161824	-1.366416338408473	1
1.5418101722686068	-0.8841073687028401	-1.560072868267195	1
-0.05612758448929717	1.7536833065913635	0.5842042535107271	-1
0.11282801593300115	2.439111122076757	-2.4724369206573145	-1
0.695579537053437	1.683987172147737	-0.9972619779538718	-1
-0.31968579412440223	-1.6497704522093752	0.6110816946117918	1
2.416038200610928	-1.5870390951157414	0.21194919961774386	1
1.232087213345877	1.7905680988242847	0.7663240896839408	-1
0.1538487103291481	-0.9021965730961418	-1.5111799030258217	1
0.6178431912591811	2.6396033466400803	0.18836042775285025	-1
-0.09429169920348271	-0.26046417386770326	-1.869412927950105	1
0.07041313055441463	0.32599723652412016	-0.46784491039643084	1
0.7505019902861727	-0.7981364240828045	-1.2195552573664816	1
-1.7920264647575372	-1.64360294751049	-0.23265757257425773	1
-0.9522242757886812	-1.4211907625603646	1.953037129827401	1
-0.8333909603188868	1.4671930541668976	-0.2738981202474248	-1
-0.29086517335166323	-1.0865013128306693	-1.471370207488697	1
-0.29017234413265636	-2.414217597248655	0.36331257868463285	1
-1.2329822291362114	-1.6234568549790684	0.09459049944399575	1
-0.7391520820413141	1.2790230236698252	-2.3223318741232624	-1
-0.3019661030612946	1.4157256144141717	1.4872011270303842	-1
1.608492894657249	1.169795333401721	-0.02741603051618565	-1
0.16042914197893204	0.3894193946875941	-0.22958489897060014	1
0.5812087585241853	-2.3914312978695174	-0.9437754659282038	1
0.4903263730416872	0.25161785891564137	-0.25089964573567736	1
-1.762046286655597	-1.7207461078605093	-0.2658662286646844	1
-0.446309209641123	-1.043192536420385	1.2176550752519009	1
-0.23042825126530045	1.5126420922378847	0.49555310209682696	-1
-0.9418482417400793	0.5796256190361125	-0.3144056807824761	-1
-0.4929476714416861	-0.9581414391772297	0.3248552695577536	1
0.2767180472762988	-0.38010684075625256	0.24343057512963376	-1
-0.08391715646770834	1.8610585236330799	-0.3498555131779738	-1
0.07701517228685949	2.3423185665681334	-0.18953161927751877	-1
1.883046897871129	-1.3482842395743273	-1.657639680814643	1
-1.812694643860063	-0.5955408504625441	0.2620649683252005	1
-0.7084401614262741	1.5375056104835578	-0.22904786767484359	-1
-1.8100914340322007	-0.7793258345445218	-0.7001721228478719	1
-0.14405013673326444	-0.24800427649314788	-0.016203082193756723	-1
1.5595353696687404	-2.0802116001162254	0.2566792976490603	1
-0.2944767937020162	-1.2019496958965497	-0.43352252991521156	1
-0.09563674161662163	3.1024990397941203	0.7162248705299948	-1
1.056916862236829	-2.376173975038374	-0.9947834930357718	1
-0.17230187895441923	-0.20005902163383807	0.05190724480019074	-1
-0.050010649588639024	1.6847793308030532	1.332641107272798	-1
-0.22342334444480677	-0.22920051820965753	0.2682618906721653	-1
-0.015384652735097976	-0.30223618472495656	0.26194316624226677	-1
-1.3559279177295793	-2.439026043858008	0.016945703246350557	1
-0.04242506784945261	-2.9445269561832355	2.0693591770436828	1
-0.3336713366504027	-1.7648599119425614	0.6002759485539921	1
2.149794238884927	2.446496318484232	0.7796377986712084	-1
-0.42179350258715825	-0.45326654514553877	0.38343105901559077	-1
-0.26722983454008276	0.22600081418181364	1.8344743762769382	-1
0.37987542430051824	-1.9672366051364003	0.7650903678748635	1
0.9422123901586903	-0.9678937720555445	1.1977146634583338	1
-1.0027162083681862	-1.8934972986123264	-2.1240419057874673	1
0.006811267262003063	1.9444321272311904	0.13310424840583224	-1
2.038227656544009	1.6223824488644079	-0.006042695756848617	-1
0.8833241209309413	-1.3322731916087536	-0.45381806115590306	1
-0.1258214101411751	1.7478947513142695	0.4117195007838914	-1
0.9974458185257201	2.840199374685601	0.9084219257881748	-1
0.25216735462628304	1.7816827313536376	-0.04079227347273632	-1
-0.4386159637629984	1.676782261402961	-0.7852257008697558	-1
0.9919847753433816	-1.435187838867851	0.1571118280770135	1
0.11769406553665637	-0.49526571393710844	0.11776720596371404	-1
-0.2031194189103872	-0.38318171086265207	-0.25437348162622486	-1
-1.2519493557542052	-0.5142455993410298	-1.2835618599891485	1
0.12899752871581766	-1.6958532338064336	-1.9836529339328097	1
0.36814601419395365	-1.7382574582289685	1.3956131186818332	1
1.1237181545272001	1.8029421054081693	-0.0650618309031314	-1
0.6223590105344905	-2.2351357361679023	0.9900656642415028	1
0.20364301325353962	-1.530416404351293	2.084229818238716	1
-1.211221884879933	0.7838257179014959	-0.13340255962554334	-1
0.23036321443324043	2.4593278197237476	1.3426477055777064	-1
0.608438262695163	2.428616298936643	1.2219154520995732	-1
-1.356209031157313	-1.9010830837162631	-1.1873613399301002	1
0.8809906285298031	3.086427888525342	0.20766384762219225	-1
0.3043921191517578	2.068639669406766	-2.32580079973381	-1
0.9238125521692842	-1.4766335639128387	-0.3692319219464185	1
-0.29767001436314644	1.2561649784427993	1.0636862391494937	-1
-0.3561201435993745	-2.2395741829825173	1.1326098147771244	1
0.023797151054251082	0.17067952296237415	-0.045995904724813214	1
1.682353654936618	-1.6234994673532042	0.44959259184221617	1
0.6539056718215962	1.4009873415027594	-0.80118564545616	-1
-0.9554747976080008	1.1526280959799071	-0.12752626021827473	-1
-0.6243349675121002	2.0149054115665495	-0.7790337305816945	-1
1.1741783602979277	-1.4894957299687648	-0.2290793719397961	1
0.9299566043807392	1.2812225844973912	0.272272071585643	-1
0.07518217084265905	1.8822317526481671	-1.1047109594185696	-1
-1.1633580635222176	1.4567720496203078	0.9228564300993225	-1
1.825993578056842	-2.51902523831779	-1.4334549634849216	1
0.5940201650660096	-2.122682593394341	-1.247125356243618	1
1.5230661943139714	2.355553690224307	-0.9992980335302608	-1
-0.09716716353801744	-0.13358068986961694	0.01199285395356963	-1
-1.7874030011648636	-1.7025924981666014	0.5388557445886788	1
-0.5958737892220456	1.0690682034425545	-1.313258719484642	-1
-1.0607042305454	1.3285408531731964	0.15547804537002866	-1
0.5692714276305186	1.6608663780205464	0.7027406037423138	-1
1.108062835004606	1.6456202461858693	-1.6808344248539806	-1
0.9504688625650065	-3.334915516671004	-0.86834311801104	1
-1.2072703599585848	1.8992270261449882	-0.6611242021757926	-1
-0.5011226752513687	-1.8390267212260982	0.11208685940791997	1
-0.4886451892325189	-1.8936558089846285	1.4154463443447576	1
0.3599117501711766	1.8581844266514858	1.0006952491650458	-1
-0.9521285887522587	1.0442935698053806	-1.2153977292094955	-1
-0.07503333344588814	0.6198229398745156	0.273213042926362	1
-0.7558515193464355	1.12601273623764	0.5926225724399232	-1
2.0188672262341028	-3.58707629139461	0.7815014439531065	1
0.08151069656508712	1.959596662040196	0.48494863456465154	-1
0.8959950299665058	1.2402964738059834	0.7603751673280741	-1
-0.4227786474552574	-1.4721889789444882	-0.37853249417485835	1
0.8318575866643055	2.384789215262796	-0.7322788674060698	-1
-0.21520166079501024	1.4204019338279847	0.5062324574697487	-1
1.1443258021575926	0.9321022030272894	-0.44266034180884284	-1
0.13462885188087012	-1.3351086872986602	1.6667326362882395	1
-0.2853772897083671	0.371569437340727	-0.36961146996436567	1
-0.12070886628044715	-1.2643183067077561	-1.234242711706329	1
0.15820432763761683	0.3295536713085887	-0.16888252366279305	1
-0.7193031465996748	-1.5843442384747703	-0.30629359910264076	1
-0.4887335598912239	-1.9417877730916997	0.03465433456286429	1
-0.6120677360478988	-1.5646660731391342	1.0594323708759665	1
-0.2595123758837005	-2.019645160929114	-0.8086755799511434	1
-0.6388538154763637	-0.3700380658723945	0.13231515666760735	-1
0.6981952951264241	-2.5954464608131333	0.2206360247354048	1
-0.4448543383700919	-1.8939559459416222	-0.32020451643934783	1
-0.24046977277639925	1.729307578245185	-1.096235250152565	-1
-0.03619010052849349	0.45828517029452376	0.1109037940509677	1
-0.964327226716483	-1.5834716360411607	1.8070576462505543	1
0.06795815055442321	1.0332456867752984	-1.233653676092266	-1
1.8316567417198315	3.1218635054785246	-0.20307573244268529	-1
0.7879204452106694	0.5272024318098303	1.1946944038849148	-1
1.0034970985545946	-1.3767480887567154	1.467990924122978	1
-0.8587990703865076	2.927917221407344	1.4429327719689145	-1
-1.264983253877367	1.7602774128338767	-0.4525655096608881	-1
1.4037999333100502	1.9004126749946435	0.15657564043393063	-1
0.8687217550565645	-0.8791450760450654	0.29833060980261517	1
0.9091837788544949	-1.1641740771694389	1.1201344307814876	1
0.9921955428189626	2.1117254810061863	-0.5043594730703238	-1
0.24984701713708812	1.9894564400230597	-1.4498938632691973	-1
0.07375216971947685	-1.8204816624878142	-0.5533918755337982	1
-0.47710067800319944	0.7854183486705165	1.417801101257169	-1
0.4969186339568705	-1.0559651953172016	1.862653743173091	1
-0.20432885915855714	-0.26211626130850996	0.08244802139986174	-1
0.9630447119518659	3.646071558026856	0.7049120239887832	-1
-0.8815866539737766	-1.5392489981486055	-0.09082604434772795	1
0.3898807463827665	1.5489358547428358	0.08180182296648292	-1
0.43141572971474323	-0.3906343029850141	0.10853344394743067	-1
-1.4356188158847663	-2.1444168612365324	1.081369119899584	1
1.4088872932931162	2.7689107797100196	-1.2546556085188865	-1
-0.7554740472774848	2.12168028969379	-0.3686266183366105	-1
0.5263749126553869	-1.9404832545432635	0.5644684690936552	1
0.9764693031293952	1.4806061760729066	0.1641062949400323	-1
0.9297757701135949	-1.3258131627477994	1.4241643375040547	1
-1.1211950664477404	-1.4380288566594426	-0.3054694195785483	1
-0.07906722063320706	-0.20840691456544339	-0.0006335653142840817	-1
-1.3052858513903662	-1.4244497474968414	1.0681344008608664	1
-2.32808199408428	2.010549187141649	-1.143439754226876	-1
0.1385206752340896	0.3207005049659115	0.22907099536867392	1
-1.5131704952526221	-2.2933534593156626	1.172526347468442	1
1.5897809156204619	0.6839864406534933	1.535557040238363	-1
0.4109323823684048	-2.2034044223760025	1.1119227950519985	1
0.9592754355684956	-1.6791212160436653	0.22223410842313487	1
0.009181938963993958	1.4399783516297955	-1.0076213896031052	-1
0.7220411685189085	-1.845800622431971	-0.9387251459035468	1
0.008380024603460283	1.5629190799388	0.5318749919060418	-1
-0.9047319492289249	-0.5604950490302443	-1.1895178816977954	1
0.8035081296554407	2.18640250138042	0.024560231703370173	-1
0.14787958363201176	-0.25937854542873406	-0.24027418727556843	-1
2.01019689025551	-1.2514142703900415	0.8188952041191639	1
1.1055765158559885	1.2536574247629175	0.40789216476524515	-1
0.8057113588829938	-2.7623986071015065	0.7724348041780209	1
-0.3770945199841066	1.4878476658852078	0.41988106527035596	-1
-0.1706076014228073	-1.7041788959531747	0.6062984499238006	1
0.169640373614094	-0.40260207259779107	0.08763224110904683	-1
-0.21473458120862846	0.23271801110571438	-0.18005329757098934	1
-0.2938880864608362	-0.17061528579644958	-0.09777688597908549	-1
1.3448186128765702	1.9555935744973578	0.5519990532069516	-1
-0.6713747652404527	-1.59257325032387	-1.834831366914828	1
1.983771723291076	1.8114726770402803	-0.30296183403390897	-1
-0.19910670556287519	-0.6722701803541424	0.21377539965257034	-1
1.030352419193168	1.3704840402409284	0.247813867247359	-1
-0.7910461566342933	1.0601715762937007	-0.9863666975351777	-1
0.10891865279998669	0.6431032357363259	0.10823780577812975	1
0.04610034281049301	0.2578961863674777	-0.050139448193160394	1
1.5655042480575525	0.6640006990542598	-1.0524827830025143	-1
0.8055071602493258	1.378046587279248	0.29598554225017326	-1
1.16696523567455	-1.5802615775779785	-0.03440590383106155	1
0.1860866785064218	2.46879249400643	0.43577813876925686	-1
-1.640735600679384	1.7126433764935207	0.2689400743789319	-1
-0.08383906064687491	2.267848146278477	1.1860734666994253	-1
0.1502518182032001	1.473152628122626	-0.07763452484868646	-1
-0.6676927879801935	2.249830995357717	2.1119230810785155	-1
0.23985380121299094	-0.37801996623084655	0.08980361638632069	-1
-1.1787332455780943	1.2660529796868643	-0.6367381371135955	-1
0.9038675232727581	1.5216631230826527	-1.4268795353590422	-1
-0.8254992611958138	1.5690753080399422	-0.8101710023129918	-1
-0.9091729215148807	-1.5757302322698612	-0.2832654775536657	1
0.007127757221752456	-2.5894042317091532	-1.099804726821581	1
0.22847365759319296	1.2612352076446052	-0.8178650707627513	-1
0.5055954989766718	0.42057541543685484	1.4320412254577057	-1
1.2277352346885344	-0.7650529933030082	1.3298833868643047	1
-0.5018609203076654	0.9256364018695402	1.9189539629277983	-1
-0.7675018291941134	1.7853468692064864	1.1994463090936316	-1
-0.14422536088260304	-3.060491479981716	0.4291224488799342	1
-0.11103061887839	-1.7009886418444142	1.0590416326587941	1
-1.503638615567689	1.3025156037574623	1.7011598621619302	-1
-0.03287655208134846	-0.4573379641076142	-0.008461285062210699	-1
0.12073535876806848	-0.5823720949379927	0.1655861576856633	-1
-1.1301301574915676	2.0223699882783794	0.6871413802541048	-1
-0.17637219670530604	-1.5763586440539217	-1.0991063527764326	1
-1.6178445665160375	1.3095578581883316	-1.9585195404411115	-1
1.2364878290631909	-0.8403805527531883	0.10180493956911862	1
0.11608017420127514	1.2947402742534444	-0.5634121395416024	-1
-0.7092492084594098	-1.9077290189274274	-1.0840605906161724	1
-2.0730617397581974	-2.4101906266277995	-0.5151240051168512	1
1.756418414555974	1.2693285290614382	1.1750877957403867	-1
-1.6189997492025878	1.3624611564164832	-1.0494682759326814	-1
0.5306000451920427	0.9341069254935468	-0.5776182596813947	-1
0.34149615927619054	1.6973556292972574	-0.2262465629606611	-1
0.68460156393896	-1.283091874896495	0.133538567096558	1
0.652954096960878	-0.8328256080446954	-0.6154694647504079	1
-0.5603060939000247	-1.4640228658770211	-0.609387276682267	1
0.07016814006383151	-1.8824313854839396	0.47115860225035877	1
-0.5785188685892284	1.3389284610340622	1.3676123500213537	-1
0.7022024636902048	2.234241832134566	0.42901299978333257	-1
0.5107134778008406	2.259232830467553	0.21006679557992936	-1
-0.021742311167109524	1.450693935043601	1.2118803117994161	-1
-0.12610204785915688	0.5805720823780842	-0.18269268702804575	1
-2.5652700529257033	-1.2567335187787128	1.349560898031784	1
0.9765845348594566	0.8396095141429598	1.937165394807499	-1
-0.9038230322156325	-3.139297666079266	0.482576668869121	1
2.5457338530996974	-3.162387651817856	-0.9972822883275652	1
-1.7724747669878544	-0.7669309146955827	0.23066255116618442	1
1.298656206694442	-1.6348168294229315	1.5630266192175335	1
1.1197145999625735	1.6784345548275426	0.9306597961155636	-1
0.1327590131430197	-0.49084334106644306	0.24049187074886286	-1
0.5069694730376595	0.8735164816692441	1.7468702936684242	-1
-2.7378313629880715	3.18051539989718	-0.9697020426191891	-1
0.08809115433586465	0.5339949322128821	0.0008686173743244661	1
0.4919947027840811	1.3376282353314424	1.0039544997976284	-1
0.6363806569217744	2.006927645993284	-1.6341689256713443	-1
-0.5065260984015241	-1.3089762643677443	-0.6582666460625441	1
0.8726103988901196	2.5551923329134523	0.34407578114321824	-1
-1.4631339446185163	-1.0345229131070064	1.9379785672238194	1
-0.1636404777079203	2.413328448593051	0.46633648790465254	-1
0.09365606520503714	-2.897275071872818	-0.2723287532244514	1
0.11461789847040912	1.2852236174242988	1.1625205075830638	-1
-0.4145169559529414	1.5825835281969598	0.6924058048461831	-1
0.45984703591855874	1.4684481218156524	-0.2987409059161737	-1
-0.45198995124187213	-0.47555413654546363	-1.0409962910849209	1
-1.5106364928530227	1.1699691676960209	0.2489497469656107	-1
-0.33404910112736663	0.8400531632607169	1.1374863587664459	-1
-0.5039222723830161	1.0787412287785032	-0.8455452347656685	-1
-0.10383551235465428	-1.025933432106838	-2.064640248440776	1
1.6017026153475635	1.126951890896828	-0.4359429601515108	-1
-0.4994680111020696	-1.3489398675746154	-1.1685585229222575	1
0.537155418250483	2.651719377257629	-0.9708573479680603	-1
0.05463843807134931	-1.6371702958456382	-0.05734467690538736	1
-1.0123849833677827	1.496318091485004	-0.5289098004180326	-1
0.5040933234192619	-1.5620325048558823	0.30635068220611666	1
-1.8526331827756581	-1.5737692710652151	-0.9421225425974371	1
0.0751758507219166	2.0824672646444538	-0.8311683085300261	-1
-1.2437371190482276	0.9933785110851912	-1.6031006834531418	-1
0.5202417001274218	2.261929217291649	-0.23749062398108844	-1
-1.2239157828310072	-1.9167176290632355	-0.4755167981021944	1
-1.440967961376364	-2.6994978080391427	-0.8817531974095402	1
-0.10031625706155123	-2.795429260011651	-0.43690049885780524	1
0.5645205401553715	1.8745400670194476	-0.4491801656715693	-1
1.3751099023165594	2.2430227514103027	-0.40300019262300535	-1
1.1264050888029642	1.8768689232671953	-0.20558457048008308	-1
0.29019859226669437	-1.3496783889041215	-0.9878081490037111	1
0.8271059598859162	1.4027073909365768	-0.3778942601678763	-1
2.2433381797698724	-1.308263005131741	-0.623030135401954	1
0.45546855947753495	1.8304480398923442	0.7590538836635927	-1
-1.5278386541554028	-0.8304104020915519	0.3049741114130756	1
-1.4930094663615638	-0.8824512568280651	-0.8550700138488563	1
0.5158006156852737	2.3182757869032704	1.341905571858431	-1
-1.7114627969352825	1.522483439075207	-1.3559436022016338	-1
-0.7671304140327228	-0.9429400699427062	0.7607795202656551	1
-0.27507902738481405	2.883918676726612	-0.14753764360566438	-1
-1.3484780730956714	1.507163529374805	1.1672550091821003	-1
0.12385927337732272	-1.4974497996950222	2.459394642220624	1
-0.4006084519205167	-0.449905257772641	-0.08716616874373047	-1
-1.2557333814228304	2.271449043187178	0.044555448807937645	-1
-0.358044125892131	-1.9310324116454824	0.6062609287073166	1
-0.21217740077575048	1.8114708044342018	-0.8705642426896527	-1
1.8456132046734748	2.193302401762957	0.4536518702967829	-1
-0.01098649704769453	0.26136058894226866	-0.11103070451654753	1
2.536861537279155	-1.1691383062988452	-1.9002490853846794	1
0.4458561690464944	-1.4465980038906276	-0.4815966434059003	1
0.19687016946269023	-2.0440599288338843	-0.9677914179450704	1
-2.3430247057294324	-0.5402870204233552	1.9843014151660952	1
-0.34851596892118175	-2.441153061869069	1.0408076962237345	1
-0.6983910688806585	-0.7217255734281555	0.6325109720206223	1
-1.4677844534407432	0.7459944020096057	0.34380067322971675	-1
1.0004357382498974	0.6374607820022444	-0.7300933989488374	-1
1.4643231755254078	-1.2710420710450228	1.3001769901825089	1
1.653380563331369	-1.0953360389464784	-0.9652721382716846	1
1.1627252611174406	1.6235605999258156	-0.9545435437062851	-1
0.5686857841044863	1.409012667994296	-0.530619877476406	-1
-0.0032561228541639698	1.2931995654176227	1.2534128619106415	-1
0.7482924562338461	2.217798338377571	0.2643981624343055	-1
-0.8678986847930772	1.1283503594015136	-0.3862510091272743	-1
-0.6416744681079396	2.005764054578436	0.9050023602212641	-1
-1.7442593500198253	1.980909535194562	1.317671215910368	-1
-0.3696763665983847	-1.5197564861209725	-0.136009582321087	1
1.7094083694282527	1.18056912744956	0.7658169428569686	-1
0.7264235828905168	-1.2268823701670355	-2.338403164596776	1
0.20767247999649674	0.6401335976562277	0.032420604388332594	1
-1.0522392431610132	2.1153067092967137	-0.3037447240255512	-1
-1.16668148289003	-2.440186109447322	0.037114441481117894	1
1.0212291945166156	2.154049771046881	-0.758237386701893	-1
-0.2381293838606329	-2.595557256012903	-0.5289223819998699	1
-0.4986854394473311	1.7600301576999275	-0.4224953225805512	-1
-0.5209617015796866	1.465390880001997	-0.9488900372074314	-1
-1.4872717766097638	2.7490829763914233	0.6145607829008185	-1
0.4238690475779186	-1.5480833836923202	0.07624569172729007	1
0.7059356684118763	0.724658005708497	-1.0265811393963973	-1
-0.6475331912038376	-1.3346703483988558	-1.2028832235060802	1
-0.3745633684574645	-0.9063771981537336	1.0293151933353692	1
-0.708296260909644	1.2684852863539735	-0.48602545611513503	-1
0.55793256421576	-1.1130514172551345	-1.4218444762887466	1
0.1479089454859684	0.36376235712701643	0.2755269367264603	1
-0.9457929893574777	-0.7881641966731656	-0.9552424379194859	1
1.5864565674827962	2.58147582035697	0.7740823806894098	-1
0.5466640077631106	-1.731576316454225	-0.817211651526532	1
-0.2735914597735484	-2.15309649148725	0.46678988809106325	1
-1.269233243108748	1.8239732254149161	-0.36737873081815164	-1
0.024959480420092155	1.3948251294204133	-0.23476448816454235	-1
-2.1189187981828996	1.503106623454268	1.5356160590433456	-1
-1.812979379887767	1.4842348306248776	0.5332772127221919	-1
-0.6613430037484054	1.237771296360546	-1.0788472444440944	-1
1.2254113403009732	1.5333917170229565	0.2671975751840064	-1
-1.5371623592263841	-0.7583318880417143	-1.1475309911653735	1
-0.13922124845847464	1.544880933897101	0.5041187573186402	-1
-0.3878210114023364	1.1114310977979784	0.06028663242803567	-1
-0.43111049237516946	-1.0020751782794122	1.643589440962907	1
-0.5887767805047096	-1.8806268743224916	-1.2135931942394207	1
0.8137034742331513	1.4649907070762977	-1.659622730944751	-1
1.5211719255861533	0.599763700457832	1.0070704925309502	-1
-0.10158261429442617	-0.8705261938976481	0.2508069793745158	-1
0.2585943028617172	1.8524927569311231	0.6241646513709534	-1
0.5256010508321473	-1.893015611190059	-0.1644338712747112	1
-0.3528160011726299	0.800349398499523	1.530581889663247	-1
-0.5570918291361053	-1.9150748574427494	-0.5784584639763046	1
0.34331185085074245	-1.3219373684757287	-1.019839146877445	1
0.06254362265236928	1.368593764850245	-0.38529252846968376	-1
-1.633070182036117	1.1071734442598196	1.3836807579743935	-1
-0.4703739864931925	1.5493678227012908	-1.5927825031882696	-1
-0.17706183754853322	0.438976205501225	0.08362231095672604	1
0.0011531014110414788	-1.597672814864445	0.2761138418936774	1
1.783881644854309	1.0810529998574552	0.303578715360341	-1
-1.0802724061532463	1.166370621042915	0.48612520665709724	-1
-0.014627045040433682	1.865609699369058	1.4685377482184299	-1
-0.28994046849014177	-2.1422026359963784	-0.9329692875533154	1
0.8369574537176219	-1.236294378097126	1.624572766390247	1
0.022536536343269468	-1.3921060479583924	1.1774465331483228	1
-0.7789141164355418	-1.6711653766592631	1.6621906882822697	1
-0.104102203541275	-0.1425083456455185	0.6442884191160281	-1
0.29712738326523325	-0.43310336586681597	-0.02025480763508531	-1
0.2418532364261971	-2.238700144820819	-0.8070957907039711	1
0.8573834269056484	2.1084984715347197	2.3238187755221484	-1
0.9396948230406275	-0.7268929204020875	-2.1170372305774885	1
-0.16807120643498796	-0.14734977292134513	0.07199352934631689	-1
-0.9484896943854825	1.2710687874566289	-0.1159718312518897	-1
-0.08297136535290103	-0.19196305147894233	-0.14324894792348564	-1
-0.6888441380643383	1.7026240066016325	-0.4823915938978978	-1
0.5094139157352575	-1.5672842956696817	0.21006830332791596	1
1.2688690445304915	1.7618223951325578	1.30059736053449	-1
1.9301378570785137	0.9469531736699103	-1.1545708861838662	-1
-0.18445189477389118	-0.5017320776486494	-0.0029331517422589003	-1
-0.4132647658398852	-1.149193423825729	-0.3528109688765745	1
1.7961053899426844	-1.7405906097933972	-0.0932404068355342	1
-1.1127538774430898	-2.6696581733831097	-1.0977333582412212	1
-0.27317242407076636	1.5044567636696258	-1.8917235907681151	-1
0.05988017477237835	-0.674166904046444	-0.08699435317412048	-1
-0.9773335319559115	-2.6457772526996792	1.5496321271317304	1
-1.0145152739512677	1.1385070506672383	1.3028268918909007	-1
0.17483230814825357	-0.12307934579830956	-0.2404575007153268	-1
-0.26918235810167174	1.578213492001104	-1.1259420714769721	-1
-0.7084914848645771	2.3039125878262707	-1.006127659145886	-1
-0.1356966243556495	-2.806730602497139	0.8200297759540046	1
1.938301048148566	0.6436768553390068	-0.09228779782940458	-1
-0.33548051993056244	1.002392711877843	-0.4472227931830164	-1
1.1658291335412616	-1.5203430540804457	-0.8770469742528795	1
0.14341073646198854	-2.424621505020582	0.12073688308593175	1
0.18983026856912294	-1.444715720892081	-1.4286144291099723	1
-1.0985771369197055	1.872430743911365	-1.222501398767836	-1
-1.714439380317375	2.6901947262538783	0.08627201897939155	-1
-1.0295508993496632	1.072999077016732	0.30145943933938846	-1
0.1489261966327149	-0.8619128182755837	-1.2669099676086628	1
1.3260103224384179	1.4043046620358774	1.5264577255034997	-1
0.3648147970299166	-1.649888383769655	-0.6521903780464662	1
0.400832800764201	1.0546633857061478	-1.5183877146469826	-1
0.08446100043712487	-2.7045057451215255	-1.6733978274423715	1
-0.255755703944886	-1.7338118950484716	-0.8201846645203582	1
0.5247316026427347	0.8816334599958084	1.4565557844987636	-1
0.9648309738373286	-1.7458793137927793	-0.2726518219334681	1
0.1585231333798045	4.170907925028173	0.5759991623672954	-1
-1.321681661955037	1.3386166403780373	-1.5561023417339568	-1
0.45309026875250513	0.30881255330617574	0.10853622127929226	1
1.2755131513856885	1.8925134604501048	-0.9283048531371216	-1
0.6645714304694905	1.7895603620157332	-0.25915519317572827	-1
1.2742849892509662e-05	-0.3408015492355128	0.018127624263586	-1
-0.056217323275380995	-0.6294538777786537	-0.0882951585676869	-1
1.201398234398364	1.6024621307386737	-1.122503665614336	-1
0.11305281340378881	-2.8608986672171683	1.832819766375651	1
-1.3378964751505307	-1.20166424110809	-1.450030982032898	1
0.3396235324793116	1.1703193608578952	-0.36292345823862765	-1
-1.4467195943179378	1.2214281738404118	-1.6947194966329449	-1
0.24426720197008545	0.43048814938617397	0.03528417615641102	1
0.6757589449586341	-1.3568655592068763	0.4222761709486825	1
-0.2603585345824326	0.5556035140761548	-0.5137784330484392	1
0.3990046907851811	1.4511590954233586	-0.32288580756124063	-1
0.9851092325340858	1.6272664132786478	0.16910135420811137	-1
-0.19328812271935047	-0.16390533509694563	0.15627242894558652	-1
1.201139345955468	0.7412482861573193	0.8454887164021982	-1
-0.22604163401142388	1.7399398474468806	1.3701803468673202	-1
-0.270466268995999	1.825886100692045	-0.9851394803669202	-1
-0.29706392237122703	1.2792333111537806	-0.00031549418424463315	-1
0.012082449027446634	-1.4787909296839763	-2.001213249994863	1
0.9691946060109546	1.9845746152647221	0.31898382584525564	-1
-0.4453570386404187	1.813693925329778	-0.8835111806616487	-1
0.5227607992634498	2.766396009507357	0.19787045601606068	-1
0.2999074335707238	-0.19003287478847236	0.06351543677188483	-1
1.0543469372932601	-1.7058706788751057	-0.28371440391938413	1
-1.1257074004478564	2.5583216035799055	0.9125414088848891	-1
1.7147495219417297	-3.2371818559479353	0.4384380635076806	1
0.15870947669046617	-0.38486024988579587	0.1265795085983521	-1
0.6657521285035528	-1.3037170085505185	-0.12276251224759432	1
0.36612966545772707	-2.0416576510111515	-0.9737000002919034	1
0.6675124046930049	0.7863029505417464	-1.576626044220101	-1
-1.1626566380216812	-0.815782740965688	-0.26493961025818724	1
0.22328825946230463	-1.9782275138397982	0.3235670810782486	1
1.1115179822380563	-1.7936670330977587	-0.7254657840153379	1
0.6239991339762241	-0.5920557543665773	-1.7101385266355504	1
0.17436728216721126	2.2504475223361307	-0.8758344926449079	-1
0.2966928799844616	0.918397002067681	-0.9351861173684266	-1
-1.5001985897758932	1.75595728205294	2.1014138169555325	-1
0.650263554261135	-1.5092010498618502	-1.664372392418627	1
0.21663135047907614	1.967255782720922	0.07594024151747264	-1
-0.3905244413018236	1.5421786913092737	-0.31323315873199487	-1
-0.4319348308159745	1.1380697839647256	-0.5768656948223778	-1
1.7954184368502608	-0.487426635519029	-0.5172886587428591	1
-0.4497209648928127	-1.8037575102032666	-0.14401135015936856	1
2.6843711587699817	-1.0685732713060516	-0.290306032937969	1
1.4576896731400792	0.3938945472826157	1.063432453821681	-1
0.6901782355784913	-3.37036060872536	-2.260968823712811	1
0.19933167017740794	-1.9468670259963354	-1.196420496899334	1
0.32102016533461836	1.4838839152033665	1.6038452240508687	-1
-0.16355075744464978	-0.3704299069543451	-0.10093676950370559	-1
1.503444600880423	-1.9838900179081702	-1.1951063056627993	1
1.3316086403505496	-1.6413200768148262	0.6208223923005984	1
0.25805940990939813	1.4194559252456331	-0.6842608844209135	-1
0.8547349046735687	1.551341342857402	1.4534040739250236	-1
-1.0533047515831013	2.130691012850902	0.35116320230589504	-1
-0.22220178725235898	-3.0520854620715285	-0.0779006162242766	1
-0.8676209110498658	-0.9182033677636139	1.3407840516696412	1
0.7308138054936726	2.5400292298257288	0.50725809886165	-1
1.1965695640787515	-1.1400392130618457	-0.05222645130330021	1
-0.10608084613829502	2.0112163663180445	0.5848540168394442	-1
1.7983250934026798	2.4827449869715985	0.23661743039735975	-1
-2.636554269997137	-2.0063808412260924	-0.2110640176043335	1
0.08125189216324302	-0.17006124014729465	0.016314088885373695	-1
-0.7137372131728152	1.3668254053311237	0.25795676713652543	-1
-0.44825789297330043	-1.6219728450539237	0.016772758497190815	1
1.2094015462444967	-2.507767599813229	-0.007394614983139595	1
-1.9482451772508598	-1.3155496051466709	1.230156666866939	1
-0.19888469876840298	-2.272395300526356	-0.00195064232828498	1
-0.2696601387517057	-1.2654325886493756	-0.7827883168766637	1
0.06019203072172058	-2.130765016272822	-1.1200410761496697	1
1.1792935888957565	0.8530621432139749	-1.3455807298637112	-1
1.5529931192016087	-2.677838290296302	-0.29400923320277816	1
1.7524412076261422	-2.7817325100322785	0.3498733423185151	1
-1.9991008505252688	-0.6094978528216415	0.8119194135084864	1
1.0729040876423468	-0.7895164519496554	1.1485928817409055	1
-0.7998814277982411	-2.462492026022348	0.22527044271273092	1
0.7356469016899393	-1.5491633341442956	-0.07690204915494026	1
-0.030570904910540944	-0.5607400368365003	-0.2988991236111743	-1
-0.4690419123569156	-2.2582990179753173	-0.7670265625358056	1
3.3981424978187005	2.749758696263741	0.08239305828746152	-1
-0.8979522150124744	-1.164654517837548	3.227670329434643	1
-0.83745097298387	1.7657602855071577	1.6114729197685866	-1
-0.6493699865406536	-0.928139686802347	0.8955274960527435	1
-0.12467644659901272	1.900792779111113	-0.4754572143037537	-1
-2.0075983848234067	0.7090409986045075	0.2771363314380273	-1
1.0585362411367976	1.6897077873004875	-0.5509313349761817	-1
-1.2211107253084776	1.435926703987445	0.3794635402312123	-1
0.7109567313365279	1.387493160543141	-1.5579016816018396	-1
-0.13690434064439305	-0.1540153281288853	-0.021194143026851218	-1
0.96542756211023	1.551959191085347	-0.7693079578795731	-1
0.33664525398702155	2.155833144173885	-0.21386203000571802	-1
0.2720566567823066	1.4106653636656177	-0.47948203962271024	-1
0.05723235705765091	0.44157502788577163	-0.12885451489390265	1
0.6722877713721905	-1.7829772274300721	0.5431033001229422	1
-0.460627599373963	-1.9284557423864643	3.15666467112949	1
0.31719198212779076	1.4254346187268574	-1.5637071378649665	-1
1.580382017643684	1.0197094429854305	0.32138933757871097	-1
0.055994168371208616	1.8552859072082708	-1.1556303883896764	-1
-0.8948355372092605	-2.6440782411496686	1.0479995167818874	1
0.7085767613323193	1.3203871019511615	0.7352965519370139	-1
1.2071718166085805	1.2466046883427602	0.6167457997765091	-1
0.42564271503056483	-1.0254535566704561	0.7159736922803621	1
-0.3285392535658645	-2.2324287262337306	0.3746290856672704	1
0.2356756301283568	-1.4324930149369737	-0.310308539175991	1
0.1267936545820858	1.5563570076178204	0.2767833958946475	-1
1.4560062418322857	-0.6906689889072963	0.11900753839500344	1
-0.5481690762836002	1.6630070647888848	0.723335446906424	-1
-0.15055618416492808	-1.270815201005481	-0.16349295183892365	1
-0.983375924403319	-1.2271328595136444	0.399087009366223	1
0.040081884332965056	1.2546569616826313	1.2320032015720144	-1
-0.17339611994839313	2.2976569108699327	1.8498769443529481	-1
0.39284584200486394	0.5852076595260248	-0.20450513118869984	1
0.1050800180171314	-1.9895815908574452	0.7119923736097782	1
-0.6497824312023321	-3.3282992626748276	-0.3392248182142433	1
-1.3694384078308128	-1.6020553921930711	-2.0385549049909035	1
0.5885676919761496	-1.5442832813444252	1.057140218656576	1
0.9127408463246584	1.5883466394221517	0.6980187574058792	-1
-0.32394705666630763	-2.059436795882424	0.6234007550546569	1
1.3108540654329235	1.0198561409628315	-1.381666768630834	-1
-0.14165005700763644	-2.5067848710033465	0.517125462201693	1
-0.46840440135967953	-2.511685261993755	1.0453414827348657	1
-0.6066885296478456	-1.5838669635989968	-0.39824709872821923	1
-0.6368583950302286	1.9681510700663503	-0.9753703103274757	-1
0.6545847662646138	-2.25969233641388	-0.8774139173721879	1
0.1255958655113375	-1.1134663982945971	1.495019567588677	1
-0.7929511664349286	2.8983107758961735	0.6422837882967327	-1
0.3953584399295121	1.6691914598781896	0.00927364212673492	-1
0.830038177429235	1.3282868333399105	0.8160371999533147	-1
-0.6731929647014013	-0.8299296360550548	-2.4244602972813634	1
0.04074787675190042	-0.40276161191885596	-0.05346558315145168	-1
2.401072244258442	2.01319038637942	-0.2965554974163915	-1
0.3816647670755101	2.054178583585708	-0.21938855437479082	-1
0.7246368738808654	-1.2255017871317397	1.5320364575353704	1
1.1121638873045514	-2.0584479927995103	0.03693946700606486	1
1.1684197564410659	0.8229857660891711	-0.0859572393326118	-1
-0.4002689392156381	-1.9772747485936626	-0.991251853083692	1
-0.5628876169746402	-1.8607964290791694	-0.18050807255492143	1
0.1925503348245612	-1.924823848111906	-0.16660263638971556	1
-1.2926863349138276	-1.641232512372442	-1.3544898398250569	1
1.4549118653431112	-1.8102061027228222	0.24596049352013571	1
-0.2787731759390355	2.0527193234585988	1.1637310907372798	-1
-0.03985591774034294	-0.5844508700355331	0.12339043741877057	-1
-0.2248950309764109	-2.682504789750886	-0.6027467471045876	1
-0.3178640832931239	-2.3159523124508574	-0.08046338096308717	1
-1.2523098091798088	-1.1126452306041346	1.288196476934063	1
-0.4116231476739749	1.8838814283419172	0.40954773842427716	-1
-1.2225406971264912	-1.550688067922937	0.2610191516313103	1
3.129299235049415	1.869437032065108	-0.5021260755966855	-1
-0.8130765332298503	1.1439814815132912	-0.9215231189119041	-1
-0.9671402171510871	0.8551684741718836	-0.43380160688599034	-1
1.7315072524758661	1.4786932348132686	-1.4011002698426926	-1
-0.9711081076581692	1.5956409633021469	1.963227547862804	-1
-1.2871067066031348	1.8357574025650063	0.22279231569688876	-1
0.9850544947239517	0.9344312211490637	0.409926973103503	-1
1.1987971620084505	1.7900292047672557	-0.292879787891662	-1
0.7523113430053564	2.6908422956830944	0.19552486661541757	-1
0.06811084038592466	-0.5619430334320339	-0.1549604492652078	-1
-0.5926996883529507	1.6006032436510749	-0.5156245756198291	-1
-0.18054180463143626	1.0324783964858875	-1.3332205929374354	-1
-0.2629530907669223	0.4932697873986439	0.3572702017966295	1
-0.5250975022744562	-1.9916576971076232	1.010783110094526	1
-0.6094082508071892	1.4442886369086818	-2.007961430154968	-1
-0.35344995248468414	1.0860367823704984	-1.6086708940812608	-1
0.006327718120250635	-0.3432152235746292	-0.30651306675576423	-1
-1.1738736059834538	2.5253155566799528	0.11053148925111811	-1
0.7986545496983743	-0.6633459734216747	-2.7468626397636715	1
-0.11884811778631191	-2.367611149863297	-0.12179889132098583	1
-1.1927109867056864	-1.6500826025968407	-0.6557166790317477	1
-1.4605282110258284	2.532779508824881	-0.4265760747484789	-1
-0.2977513511636566	1.6397952327629135	-1.5302965027144195	-1
-0.45603818546116837	-0.4806496197431987	0.15623978249924628	-1
-0.9095659404015051	1.3202765728950854	0.17769725033305409	-1
-0.9855005897281992	3.3439205156217504	1.5615151347589393	-1
-0.7300635248705163	-1.5292171313706708	0.880920136810771	1
-0.3996509480856981	-1.3230372809151916	1.3158980866422976	1
1.026875166906984	-2.482782573214772	1.169837856684198	1
0.7899011526010936	-1.9454868555079021	-1.752986305520467	1
0.6106016506808732	-2.014157260909477	-1.4515978058962138	1
-0.11491814161666243	1.55670068370591	-0.09322243630854618	-1
0.7277656903502563	-1.980426189496295	-0.12853440723106746	1
-0.11503900584921445	-0.2328844628167392	-0.007329042497683986	-1
-1.1289816762072764	-2.2577998072870296	-0.17977087592627944	1
0.004166202627595311	2.3631035068212647	1.727704905171	-1
1.8020342806094327	-0.4566450434607294	0.7011475300309689	1
0.04428931516050341	-2.1077821344834415	0.4605706069214138	1
-0.1271511515448176	2.230754960373549	0.6186908027233935	-1
1.1948342546500936	-1.7132419502252216	-0.36267312388784245	1
-1.1407925855649073	-0.4112431617682356	-0.6434605387301615	1
-1.6397340894115253	1.9316599184586867	-0.2149153448269964	-1
-0.17924053670019124	-0.32242851446102816	-1.5092161804059274	1
-0.42418374336172776	2.083876854949927	-1.5950102202673189	-1
2.07993628224114	-0.9528358569738784	-1.6512239153686536	1
-0.5024951378938702	-1.1446586629649347	1.5040421332287286	1
-0.3159530836093707	-2.0331927295603287	0.5459021797408596	1
-1.101986602989233	2.6862399416185463	0.4874605825403472	-1
0.10735155045867752	-0.6461474920443835	0.16508735859219925	-1
-0.852995886062353	-1.839634225722432	-0.08221653812119468	1
-0.20263698366602814	0.3051475959749803	-0.23618530751300076	1
-2.4683577804409476	-1.3767641863307052	0.24665446482869186	1
-0.8931398753404172	-1.8826935484440102	-0.6192919482782775	1
-1.3356629468028844	2.5197829089823047	-0.01411046572648775	-1
-0.19534593128838917	-0.2809239185963013	-0.03740679591525467	-1
-0.2385710631572961	-1.909898486254503	-1.4909447401604021	1
-0.09012331993336949	1.2524250879837375	-0.7789206623435466	-1
-0.8098813679963643	-1.0542005388689883	1.0465101941865327	1
0.2389666520342677	-3.0374541667333785	-2.356506218852205	1
-0.9401293026332729	-1.5338496456236679	0.6491932796481884	1
0.20793009029365755	2.056448943635974	0.9120675408389618	-1
-0.18022380401027865	-0.14130926736577337	-0.07063399949036635	-1
-0.7321839410959539	-2.066462385224423	0.8612716337404591	1
0.5028462895273152	-3.023828517276711	-0.4922396778314728	1
-1.0724351235262861	-3.0688323613070665	1.1884116421311266	1
-1.0346457478621827	-2.140007248807676	0.5419230353846305	1
-1.0610933339473347	1.3575559274150684	-0.8540019776666155	-1
-0.8850350308714209	-1.626280684285315	-1.5114313578953862	1
1.3803754995197874	-0.8760232320362782	-1.6153519049444303	1
0.012312716599352378	-1.384934923694102	-0.49307624937005834	1
0.06229026048774071	-2.8779315600477977	0.31372366378674443	1
-0.5763625960753609	1.5826947192954777	1.9361825341238899	-1
-0.029992721002555723	1.9743012297376863	1.6427779615162763	-1
0.04612686926913023	-2.179452768193575	0.8172957004746176	1
-0.4436859059271974	-2.774314326561849	-0.5267240543842227	1
-0.5149847410048544	-1.9254411397655924	-1.6329554759461797	1
-1.5855883488445939	-0.2777565063115695	-0.9175995592473853	1
-0.38557943540861417	0.3988283652629392	0.08242927377662895	1
0.1366412054926996	-1.1035037595270059	-0.2425808174502841	1
-1.0831591182515772	2.8811805925727327	1.8300960707277203	-1
0.5341721197500295	-0.6605400897231162	0.22977512013502502	-1
-1.118420021562591	1.010091673835277	-1.1715351400880705	-1
-0.2897682512998046	1.5997092913245243	1.2798437297064114	-1
2.4189366364971105	-1.0694020178515629	-0.7751530016220888	1
-0.12360145065001511	0.17296149380506476	-0.4725022343492565	1
1.897758526044597	-0.5719064512729644	1.6761004666194215	1
-0.007502906991798111	-1.5517733402883853	-0.33613508629116495	1
0.01703079764341112	-1.5314236673070953	-0.9700127134617268	1
0.46169929939892085	1.0347291408877863	1.4010707204702313	-1
-0.003936385054178566	1.74514485327681	2.181229679039216	-1
-0.6430811488237029	-0.37643291106502086	-0.9160274472172376	1
-0.5055493979958146	-2.4863653284577025	-0.4426827405017797	1
-1.0625106019758848	-2.0408589588297907	-0.31360739922622005	1
0.4129264922087979	-1.0123296189836952	1.9796322615243103	1
-0.28461229946585165	0.5446297669669347	2.0135659648665394	-1
-1.3171220035805478	-1.1597879455845197	0.1860904153296355	1
-0.257117460113363	-1.4100677048503645	0.981498870710524	1
-0.09594657855844457	-2.2560398952611216	-0.48624775335081005	1
0.09462151616606536	0.322635077444123	-2.123611186448879	-1
0.07287893029829384	1.1271846944317705	-1.091758291367016	-1
-1.2608803285228172	-1.7736928671931846	0.9723258834376034	1
-1.9880834264647789	2.4437673927896633	0.7743892591955763	-1
1.3714385093269827	0.793792705395859	0.6194648180455666	-1
-0.08539215280568557	-0.4874723683886622	-0.4798360088980511	-1
-0.3703934293240795	-1.4513365607313766	-0.48915802521192814	1
-0.6216720285487909	-1.8728473213865566	0.6912977230881534	1
3.603413494558126	1.241881014710588	0.1694795970082408	-1
0.7468029446618774	0.816840873609818	0.8385089467746696	-1
0.5392005866697033	1.9944029230792788	-1.685699593049196	-1
-0.16990318980184552	1.5895406708017774	-0.7852077854619672	-1
-0.2479905191639108	-2.752439242859126	1.676651138523169	1
-0.20366157600076434	-0.18826313573008163	-0.06888293087458008	-1
0.15145586437151876	-0.6306028807460078	1.8630629197532564	1
-0.26065174554531284	2.0434524205949316	-0.08275393197869792	-1
-0.15040683587625459	-2.8357573182897413	1.0349989211682646	1
1.118872172320631	-2.2676821057039356	-1.1197946773015475	1
-1.434026510873545	-1.87445640678729	0.20086351291357707	1
-0.8465733123444755	2.099866111268728	-0.5738693078037661	-1
0.037861927573698564	-1.201957640593587	1.9881900509453383	1
-0.7596333619451188	-2.2877065706973654	-0.5173108511483074	1
0.2827361965416455	1.2152575552554428	1.0565642804007764	-1
-1.1068431622172272	2.519551357284657	0.7249977611160163	-1
0.44501402804325263	1.6363865787068463	-0.9203906500306382	-1
-0.9358354738721597	-1.5880552755553672	-0.5416106846076457	1
-1.0039147879308836	-2.5650013997706207	0.7854193194916108	1
-0.6718814351402039	1.6864246544896901	-0.6955665218094215	-1
-0.5941339688919275	-1.4175558478664523	0.3729812628126704	1
0.002204836929548116	0.9887561213782203	1.0494169143638958	-1
0.8206187904560626	-1.353395492940872	0.5396254896855707	1
0.5498321653460294	-1.889544564878395	-0.1140316563514989	1
1.815937801557379	2.071067687981457	-0.12840002762065644	-1
1.1416137465361864	-1.2366175726782083	-0.01230924622276626	1
0.9837351666691757	1.3683899604631302	0.0027940334388190987	-1
0.7202335509599195	-1.8016826572294864	0.7912562465422819	1
0.04944304219908789	-1.5558060363411184	-0.1429035115500221	1
-0.23717053472375962	-1.916505247354559	0.7951481677190985	1
1.6036026040272375	2.314804519523793	0.7326045265623211	-1
-1.013457137093261	2.137004987989976	0.47638734774134195	-1
0.34309236975324625	-3.1832276495061462	-0.3061350935759469	1
1.1345037816420587	2.0528793677985986	0.09371433858085454	-1
-0.12806896409910792	1.4143140975614963	-1.0738191505333967	-1
-0.08836998611736252	-1.9348123945247986	-1.7997268185812747	1
0.18176125606524685	-0.3930111769405952	0.17135566255231885	-1
-0.15429538316077754	-0.7946353439271032	0.37380732743827016	-1
-0.9147579586454773	1.036957700440511	-1.5513207388172408	-1
0.8091335852021225	0.2944558868607523	0.7602017667796703	-1
-0.07888537229223741	-3.3108295212245293	-0.9443598484466205	1
3.252880110406514	1.6820073720950621	-0.3115746820160521	-1
0.6173049524737027	-1.755540608835187	1.4865367599828936	1
1.2643549720719125	1.0174380851277522	-0.6010677010642789	-1
-0.6390612542011452	-1.2384861616259613	0.9819958043363903	1
0.17899363467277096	-1.108607303250642	-0.9945680373852906	1
0.7918601598599853	1.3910953766956657	-0.600683039856504	-1
-0.14063455751014053	-0.33192126205430234	-0.4703105757800927	-1
-0.12019427935525945	1.364562553683066	1.3181541370379537	-1
0.18600689475431556	-2.4497318440245417	1.2051857137962556	1
-0.19828127908412135	-0.1191979406725664	0.007040971584407075	-1
-0.13543802824314297	1.4338262383481013	-0.24651062456498224	-1
-0.8027884208054027	-1.656054251893605	0.3719052683096543	1
-1.3063926793067855	2.2737163945492336	-0.7665018374357603	-1
1.1744408573026417	-0.48239791097274	-0.3130314099463508	1
-2.419082744550392	3.193918173992393	-1.3812921704356351	-1
0.6497340082454175	1.4685193525711036	-1.4801395226733007	-1
1.5344785403508459	-0.6255516622532938	-0.920825839420891	1
-0.87437954194361	2.185146034377918	1.1802820542111103	-1
0.059021154296170886	0.4369104678978915	-0.004163495673026638	1
0.20542592396826936	-1.7721835964473336	0.4126304068885469	1
-0.862132861801337	-1.637106239881833	-2.1222846347277504	1
0.123685058401618	0.6441967114527354	0.14709011912341813	1
0.6061199300536859	-2.8171260679655905	-0.10204484479630518	1
1.1042822821419622	0.952661642073952	0.15967739046204926	-1
0.6707311227441491	1.5766196664606684	-1.3835623823653906	-1
2.0739336309969048	1.620484798500254	0.5184138800247194	-1
0.22888849819383933	1.962777780918402	0.18982237305836036	-1
-1.6324832224360981	1.4175255419016644	0.3557536325446749	-1
0.10717235765614458	0.47274677168749013	-0.2335970717963471	1
0.5541341923352472	-2.401076566397134	-0.780446033004927	1
-1.4141549569105014	2.142023198438631	1.8849992203325263	-1
-0.09434279472105306	1.4545529001777195	-0.9153080942827572	-1
0.9426108924636845	1.5105431530954663	-0.17171943227898204	-1
0.10490413356204487	2.310599811039179	-1.1035287835202232	-1
-1.397248218590365	-0.9526289503032267	0.6231076455127108	1
-1.893675268262336	0.971854370339919	1.8779193101479814	-1
0.4945371393947263	1.3240756824149837	1.3269119423063547	-1
0.916961207743281	-2.1907875247175843	-0.6106162741596344	1
0.19700920356073232	-0.27213539895383365	-0.032597915465835854	-1
-0.887149236057407	1.704901689660429	0.2735024532693583	-1
0.34780289601038217	0.440975591179566	-0.1774049460957066	1
-0.5591219015353516	-1.5023323417278853	-1.1594902537977152	1
-0.037674884382037185	0.9582022915831363	-0.8083635152592303	-1
0.04522063422450348	-1.4158708416227412	-0.37818905436372685	1
-1.4093892990694732	-2.4854645913147677	0.22592299504444846	1
0.13883196867457415	1.568316318309104	1.426693529534406	-1
-0.12029165608690669	1.652156306312022	0.6108803658142908	-1
-0.6350757793553612	0.8723601552342549	-1.298801023193126	-1
1.3494264565504779	-1.3517601978233096	-0.45586210981290504	1
-1.6492208294085495	-0.5088889721363584	-0.3281184547329953	1
0.19109461819891144	-1.435455757469324	-0.7436261682361717	1
-1.3388435155475658	2.9052039042224362	-0.5357116228724741	-1
-1.3734699878644627	-3.8417425839738457	0.11497051237730173	1
-1.2975224886733268	1.1351867578223587	1.037147127475494	-1
0.51552201884477	2.1475191233226623	0.14523116160592453	-1
1.1656196547593556	0.7533359127362322	1.1083243338417679	-1
-0.012093019420134321	-1.887059204150432	-1.368112958120304	1
1.1116457942507114	-1.481821679717782	0.6490898522216566	1
0.32200123822966176	-2.518501987626812	0.5370897189788175	1
2.3143205305296712	0.9060971063363487	-0.2371285383028931	-1
-1.8256422203714309	4.159524236515545	1.876569516110762	-1
0.747023972870549	1.5178655277372886	0.3091749018794935	-1
0.31819087614283353	-0.9455670427355154	1.0539173660651433	1
-0.08260452703439494	0.47024854929207904	-0.16973961808411378	1
0.9954498971793777	-2.781000599380381	-0.7879616261174288	1
0.35222852307795505	0.4624468736002664	0.20491577996496385	1
-1.4171996427408158	-1.460533797227675	1.707291220798724	1
0.1472697258872525	2.4031500459142765	-0.24817068247909874	-1
1.2367601516352478	-0.9763542249636417	0.5382324528964539	1
-0.40603246545521354	1.9800757194430934	0.18749296462084797	-1
