1.0023704014472616	1.677119053523505	3.0410392701550046	-1
-1.2229935240146126	0.39871224966401375	0.738256849147489	-1
-0.329133785468468	0.0882006153275752	-2.813280599667675	1
-0.017663667783164257	-0.7086904836176144	-1.6343950474688367	1
-0.10087683773164648	2.636413490767596	-3.3854498336814034	1
-0.24844006453253123	-0.10993897648679003	1.7431041426663265	-1
-0.9040129841949056	-0.16577980060976316	1.1500304858563446	-1
0.480017085985041	-1.2394207829406725	1.148057007766331	-1
-1.147332780952856	0.1508243142263639	1.7035548885986842	-1
-0.8798277474048293	0.41404347226827737	1.7486990845028538	-1
-0.6831396272179839	-1.0116736607396168	-1.4896708945249846	1
-0.2093875935564509	0.22330169553917378	0.18167674287518723	1
-0.10122168996072672	1.009618063447825	-1.7564577170517925	1
-2.596168534614286	-0.3900876187464343	1.6149291486865653	-1
-0.391038392456874	2.506289792160376	-0.9724323563741178	1
0.08007604704012235	0.4299182454969311	-2.430084897514636	1
0.2286551008381033	0.46374704040173165	1.6683489337837751	-1
-1.9193015037771972	0.791627833855687	0.5276390248156513	-1
-1.013362741789499	0.02890929199958489	1.675506064461771	-1
-0.26915228482624004	1.3215156938746564	2.2966726390885728	-1
2.7218450017709785	0.40878632956910904	-0.9924780118484465	1
-0.6677364305914588	-0.8069284512057974	2.308666123351256	-1
0.6530631029989526	-1.322670520778554	1.6660428719397768	-1
0.8127697560264224	-0.96612091306098	-1.1957159429956428	1
1.2322639244842315	-0.11404406523189076	2.274928579572057	-1
0.2658122324593377	-0.30320892513521636	0.6023883483879475	1
-2.424847008368662	0.41111818210063095	-2.0616155018716245	1
0.4104545420886556	-1.1711755962389823	1.911798975413601	-1
-0.8150207456020607	1.436833794841649	-1.821496110875786	1
2.4878760387147456	1.9080206014158736	2.003091240035164	-1
-0.1890437645308352	0.12969059585317033	-0.2690267886286874	-1
-0.046253559766842825	-1.7577727327669772	2.1164556065918747	-1
-0.7801300669068564	-0.0426081261262146	-1.8153870121178515	1
2.9286799652319706	-1.620974615575464	-1.2029274095114946	1
-0.3785155831268108	-0.5426880199192459	-1.0099399734673553	1
-0.531876604949495	0.22138189799286181	-1.8566213232382254	1
-0.36981634825870524	0.39743939356267755	-3.4420433604017253	1
0.050061296051884925	0.17209310457874638	-0.4019688776659738	-1
1.7149940352999171	2.313755025915183	0.4771598037967959	-1
0.4183938563757954	0.37761202164158836	-1.9546339146231582	1
0.8776434589188418	0.7776153665721766	2.428765967612678	-1
1.6613236785125258	0.8924534416647073	-2.687690826702666	1
-2.2822145304066606	-1.447721882718441	-0.6591605225711827	1
-1.1098640841339693	-2.735957583016207	1.7498906417242268	-1
-0.41914905693668897	0.28542657655663134	2.219621883521039	-1
1.4269216997248528	0.4484071799897978	0.6157441555016823	-1
0.8191662724124935	-0.4691126425141512	-1.7048488599832432	1
-0.39590815878000113	1.3563410668818294	1.4591150778508963	-1
-0.2545763708018869	-0.9244319166503416	-1.75428905389205	1
-1.7648463447145386	0.6348325972489277	1.786359536002085	-1
1.601516058036886	-1.3642983096694627	0.9335897535219307	-1
-0.6255321513566522	-0.6485556289583455	-1.5776887758635358	1
1.3085327553785395	0.4853859335766655	3.160833629332161	-1
0.6887230551039326	0.5543310735256198	2.2310160597133524	-1
1.1035857578420885	-0.4943562802613203	0.9646648700355913	-1
0.6821334828968519	2.350815390144551	1.1208057471303345	-1
0.056554846873623534	-1.2380361860959084	-2.2908308762269955	1
1.8239382003363542	-0.6536595537105719	-0.9027623359959073	1
0.06149147874926393	-0.3293208760212428	-1.2391355606470702	1
-0.5525102493053555	0.6785047715200507	-1.4530129996333891	1
-0.12958839862691546	1.6655316631440515	-2.2339237173156503	1
0.2612891430883498	-0.5214237657064495	-2.2989851099142573	1
0.6609139404889433	2.0374136870350767	-1.480290242275608	1
-0.7765464135727587	0.95056854194296	1.4066954045362865	-1
-0.1892661272276019	0.24120801889875168	-1.7535098739144699	1
-0.6554704687550589	0.14862025372251353	-0.46978579164507395	-1
1.6197900621067447	-1.9034686709542128	-1.4568346140376467	1
-2.2651100845770173	-0.05066281056356468	-1.0412189301911545	1
-1.5562210154681821	0.524630159196856	2.2726913126094566	-1
0.11381654845271945	-0.16204258541435612	0.6306775812554373	1
0.1362671410638439	2.139089446911731	-1.3384628646155026	1
-0.30838597217217817	-0.014532376894758546	0.3542350882054738	1
2.1962826074530137	-1.3110598227160806	-0.8531108261161388	1
0.5855162677718815	0.2897662548551183	0.2739638108091115	1
0.2882404760727619	0.008104213977521132	-2.308605092217366	1
-1.2036388671746399	-0.15478282575611563	1.3421559805987533	-1
-0.011513831346308845	-0.5754586470682928	-1.6674589721278443	1
0.5649855407327005	-1.5126979482242637	1.6549677795788753	-1
0.014859928371043496	-1.2116999909694717	1.6236331408101825	-1
-0.2861658525196688	-0.8910410570101811	-1.9661090654537774	1
-0.8179858283623938	-0.66512426963704	0.6463870494428086	-1
0.6760586767244617	0.5083471940078955	-1.5863520526719097	1
0.38503284132585197	0.09240793839541384	-1.7525061353414628	1
-0.035452829832133784	-1.720600250189833	1.1297887435367115	-1
1.5837141316059808	-0.825256300033404	-0.39296914834685875	1
-1.7325030230739673	-1.391625962010385	1.8964391150195	-1
0.503673684737793	-0.10653436505384267	0.6880529913474663	1
-0.7084161700312954	-1.4745680025859889	-2.0818164072586636	1
-0.6424920261847475	1.1524126606612204	-0.7491368094028799	1
1.3686989004966394	-1.184642665499516	1.4260619595655508	-1
0.06287152139030552	-0.3977582985944082	-0.3151938549270559	-1
2.181358121280639	1.1411731787971382	1.2853350343191843	-1
1.0683520933891848	0.48971186921714127	-1.5370753366281449	1
0.9945282258292119	-0.5797946218615261	-2.733311719059636	1
-0.10052518808651592	0.195641796061852	0.7081955456424233	1
-0.815292675702197	-1.140731287644678	2.0002573808990562	-1
1.6555410842026144	0.6882262877975773	1.5159231794161134	-1
0.454655006290017	-0.7213044374576172	-1.3648653693047346	1
1.1396158929102447	-1.0085208584262404	0.5551583084491936	-1
0.8256741791581648	0.280562635508945	1.440916782379325	-1
-0.07014563301921162	-0.08697422963099216	-1.4222805041489617	1
-1.934247179962926	-0.5616171853923688	1.4396156377385148	-1
2.0426800346487886	-0.8134551849382656	1.6018163176991016	-1
-0.5973748959612472	-0.37389353902572525	-2.7401659682109814	1
1.3833008156597029	-0.2972829920512412	1.3316278123463114	-1
-0.8065800303050235	0.2905834956724112	1.5821378838109903	-1
-1.0049859206930998	-0.7891007496513202	-3.1402766319268225	1
1.489178749507234	-0.23893356008618263	1.6723861505082651	-1
-1.639200566213276	-0.2442507244917014	-2.6615855130949617	1
-0.08892904397208173	-0.9910143796441414	-3.518778945004766	1
-0.5274357937965118	-0.7097974781818486	-1.6121172106222936	1
1.2678125140471332	0.8945984684304717	-1.5518968863730778	1
-1.0469692529604013	0.3791695609341382	1.8397638053432614	-1
0.3697152469286336	-0.4199337694529156	-1.8946133621607766	1
-0.7367736777006257	2.4991297021921746	-0.5604841407942782	1
0.9764771912704067	1.3924496932201085	1.9060351326829457	-1
0.45287289899678473	0.2073415664910471	1.1982285083000108	-1
0.6791870900314071	-0.40901850360027253	-2.2622333160650614	1
0.062356274434800185	0.8396624899594334	-2.5564017235234244	1
1.850543766810562	0.9835370693129013	-2.2014360525201186	1
-1.023979968461876	-0.9541208347745398	1.084762138597881	-1
0.09047462836813489	-0.032786260767379415	-0.266315162356168	-1
0.20177600138491608	-0.06016772288984386	0.29733624739335546	1
1.33851597376846	-0.38886114365438995	0.9968804268396363	-1
1.2608038380466362	-0.2995735543569814	-2.065545696190618	1
-1.2061980349062167	-1.190691476260787	-1.456125685485151	1
-0.8153601188890127	0.002723343628233751	1.1895160045731146	-1
0.3947508392651585	-1.8715545587757974	-2.0936561398404523	1
2.1440024166229614	-0.2608732954397093	1.8190308228842247	-1
-0.9901727967105252	-0.3530517982307886	1.0214212667882914	-1
-0.646976757784083	-0.6696370239656615	1.3134549961382955	-1
-0.7270170767691904	-2.2921862144471103	-0.9506966554684912	1
-0.20341018913822384	1.7488921559747945	-0.8861509676761803	1
-1.9805471550638214	2.0411931395395064	1.1693483080230989	-1
0.4558490541594229	0.18981649607373924	1.5236805870321612	-1
0.4615112093869956	-1.5502257714007792	-2.3216147635093325	1
1.8366158200114537	-0.17800649819466233	-0.5897889255916411	1
-0.06026408005785244	0.11132842639288482	1.4861834645838512	-1
-0.3586242922362428	-0.5906968036449523	1.3283717174688265	-1
0.0574707483571515	0.48982820745144307	-1.9940380778401336	1
-0.05383896712114764	1.306758438355156	-1.17592467329727	1
1.234505119076697	0.7213895714651902	-1.115304946150372	1
1.0865033213486235	-0.13334309385738274	-1.533440422217665	1
0.4043954472068596	0.19890305633743946	-2.0170045117161455	1
-1.8605189461852132	-1.4477352423730845	1.8303000708718504	-1
1.421135167140798	1.6467250358492935	2.4082654481633603	-1
1.4766979138369827	-0.4360730606520858	-1.9257920391397367	1
0.4692818287991489	3.6503546543628507	-0.9031326160372777	1
0.5747740387852251	1.3983052687020117	-1.2200576561657548	1
0.9563454192883528	-1.6089303183300565	0.9197710314364432	-1
-0.39035504679424565	0.004948662137201534	1.2553559759798538	-1
0.4502763741320502	-1.3208225822594195	3.337592594384628	-1
-1.3437450102579471	-1.1859166542848616	2.2837015437605226	-1
0.2794850480342781	-0.9817173365809669	-2.4976495588263004	1
-1.8009113095471698	0.07151498331397202	-0.6525556637223937	1
-0.25626525169348596	0.05725003085025985	0.49658814152093855	1
-0.5525956632029825	0.49366884127342253	2.7186492512799205	-1
0.770225031943683	-1.4974144543481158	2.2789723341291444	-1
-1.0661410979484875	-0.6899281085566196	0.390671574164864	-1
0.9155901172393343	-0.208410155968118	-1.7629368864287245	1
-0.8925991323140601	1.0968484102193075	-2.470593118602461	1
1.2890780761363518	1.31207170014953	1.6487685536298096	-1
-0.6384950307334535	-0.30074808084368043	-1.7533370630197427	1
0.4511722472084957	0.39825867197743003	-2.090481655349044	1
0.4101358024106148	1.3959941395246613	-3.9263137419982663	1
-1.9846530153859279	0.3483672439088049	-1.0283742232379465	1
0.08368656489497536	1.003306671540773	1.1222615376738607	-1
-0.18221929883173874	-0.2559943780746023	0.5997523698320903	1
-1.6393294624927217	-1.071263996203243	1.882163071315849	-1
1.6313520108277049	-0.14018989670025253	-0.641646424501845	1
0.7440404210250425	-0.765196353418784	1.3486916368097854	-1
1.0428637596861206	-0.7150406306429097	1.2955626946140182	-1
-0.28541744052758883	-0.0754956538675933	1.8414481177679578	-1
2.209577349322526	-0.6248229317971549	2.633669768847413	-1
0.33666099635602265	2.4913099500536164	-1.339154687376289	1
-0.38614704324951754	-0.5859822360944965	-1.6448308171638475	1
0.05383128236035924	0.5711359502490077	1.5271102395429517	-1
0.18930746596435413	-0.1058728523063426	0.20079073723948454	1
-0.5091300170175894	1.12252656658884	-1.126172984869159	1
-0.7191488713560021	1.0045478745156202	1.3477998553454644	-1
-0.7502184827270815	-2.3833338085490174	-2.211140062830587	1
-1.3535423603667835	-0.4813652899546883	-2.0712086397769367	1
-0.8117250816603527	-0.4932854280774088	2.0536453073320935	-1
0.6248447416493511	0.8111072123851677	-2.590088977285007	1
-0.30409802461251706	1.3254080105855333	1.3062016761024706	-1
0.5070096542405109	-0.6690494072667224	1.72477308133513	-1
0.26985784087463827	0.5845394132335759	1.639957950265264	-1
-1.335644537866598	0.23146281312892386	-1.5157315056340173	1
-0.41339544860560845	-0.4561693945118442	-1.8512982767026582	1
1.131427629223365	1.3559584494156776	1.3684711729178372	-1
-0.030813012500890427	0.10451655549406115	-0.25715865479892913	-1
-0.047188795464101214	-0.2588041973394318	0.2384202514962968	1
-0.08358624434373182	0.3107688279933182	-0.4211049415953185	-1
0.005496966921135567	-0.9518719408739511	-2.5129781634064496	1
-1.779034316861963	-0.567916194284478	1.358981955321799	-1
-1.4588945173642789	0.6202294130907473	0.7133052582794861	-1
0.09657216560624085	0.1223789264285117	-1.923643950571356	1
1.063549472096303	0.33084330598788964	-0.8564167770535598	1
0.6967854342641182	0.1555430653490647	-1.160292529788328	1
0.0202474254630088	-1.4071976504082395	-1.9905094101259355	1
0.3523777936979953	0.16922151908964903	-0.3507850363826782	-1
0.9740728303090811	1.274007136786525	1.406743860175141	-1
-0.9394723316237885	0.9284601077618048	-2.9123892759562118	1
-0.05404604443904302	0.21639956680962827	0.6444242023661433	1
0.7804293026156699	1.9748854075895017	-1.1744634175853101	1
0.1083136092107075	0.05645490780946909	0.5056211957420323	1
2.082514961810118	-0.26314036145032527	-3.9827946223116784	1
-1.1113049483675435	-1.0071892918000374	-3.297869314837608	1
-0.17734696080838055	-0.5355263968245648	1.97945610500567	-1
-0.09757242844195003	0.07210157763971195	0.280022505095624	1
-1.265171915811657	-0.3900649704958779	1.4563517105258392	-1
1.5380341379090998	1.097136131076926	1.612733143578045	-1
1.7544115568641643	0.19852187635484933	-1.661799018938225	1
0.3933529123695024	-0.15391731331507336	1.9687429179404474	-1
1.0717701861365039	0.21669940496497053	-0.9634351637649659	1
-0.4960054341432054	-0.3855996645323195	-1.3814013546889745	1
-0.3356147376226314	0.8359811838500987	2.205526746915087	-1
0.5675371262692765	-0.09261025739271667	1.4830654525553055	-1
-0.23008535287875453	0.9096016949605105	-1.1546433819211157	1
-0.4160084145959127	-1.5591394021476006	-1.0113713235446669	1
-0.43125699114477334	0.19008070738077046	-2.045636322969345	1
1.80610342483214	0.6875268968463495	1.346895691544882	-1
-0.20614918784775083	2.010788992861748	1.3976462750118017	-1
1.517254555980998	1.3819641679662884	2.608045883693299	-1
-1.220501691223896	-0.5889931782870741	-1.6111852298641847	1
1.4663598520047403	0.3136648350661571	-1.581041471375587	1
0.09463375670636377	0.8409224413246573	-1.982667387740871	1
-0.5680607638898485	-1.0428507411995	1.4324026248503563	-1
0.25878966583391405	0.011908429712761627	-0.21240812507393797	-1
0.14841741415090415	0.356045428440029	-0.17507558621357625	-1
1.5386644550824795	-0.8485857008922305	0.7713298717290786	-1
0.6562912929286246	-0.5796605693990968	2.286982259755883	-1
-0.20969261119500082	-0.034284841863275836	1.7727619362077471	-1
-2.574768938826698	-0.2505358289838521	-1.490959129418103	1
-0.23098500300739813	1.0435112871214747	-1.29868651701494	1
-1.1819226290431835	-0.4372744365130315	2.640489789675555	-1
0.3469531365518387	0.9362060492737921	-1.5471251675803466	1
-1.0477889182814009	-0.3714434825212678	0.9887004474462144	-1
0.2998014236033566	-0.04799167118430214	-2.660156525865676	1
-0.7610250045563106	-0.6560048780943042	1.6247472864729862	-1
1.4735308408614736	0.6012449836976309	-1.0812780191840377	1
-0.12951025954675294	-0.1323388114851747	-1.5126115254437207	1
-0.5915081190583267	0.45907379850226093	1.2607014989314436	-1
-0.05544275671276827	0.19555982146965936	1.4222983384636436	-1
-1.8988466001910738	-1.8756965496590312	2.1965067688384856	-1
1.2486389954712642	0.3133804155416956	0.9373714965777988	-1
-0.49038319349259224	0.7214144949427125	-1.5272178095463933	1
0.23861671835164056	-1.062099718673462	-1.7165185622336647	1
0.5519806109321976	1.3858540278435225	-1.0360544732376487	1
-0.8392898097179479	0.9440075867403581	2.602019079068959	-1
-0.21614503779123087	-2.245889630371677	1.289845259118224	-1
1.9352274349493195	0.4493500988782092	0.8305309169249415	-1
0.9912047496600415	-0.5513472513013791	0.977390597954753	-1
-0.6975104404268437	0.0765018280535994	1.2009376432438208	-1
-0.19071932668422814	-0.1678816545927821	0.19182558474876313	1
-0.6169921199178587	-0.4304747806248972	2.5174320612399894	-1
-1.49654793022296	1.2203571991556939	-2.4436115171828816	1
-0.44811041017489384	-1.0719166835932241	-0.499430930158279	1
-0.7660251913844422	1.7954175370056131	0.8542008603194639	-1
0.3643934161017804	0.798547656395929	-1.4745576361624002	1
-0.7075755207534251	0.6381311314272546	-1.9793591480777062	1
-1.13481604101852	-0.2839455520621863	-1.8948819348269101	1
-2.313530082879786	-1.4889043067275032	-1.5341581337406835	1
0.9287158225392856	-0.10642370089320426	1.8639466664946829	-1
0.26269029392356935	0.0300421979716353	-1.878532827813058	1
0.12735844240720584	0.1630889662975098	1.8488452222064944	-1
-0.7974552904530847	1.0575908744396865	-1.0501055699628032	1
-1.3345296200132275	0.8727596615482551	2.766405069150356	-1
-0.35183023575425937	-1.1378508982425128	1.1230398949478164	-1
0.9875529921541022	-0.32081517064857423	1.880722676304337	-1
0.8986444869328234	1.1125418544466061	-1.2112175918712993	1
-1.981603840056077	-0.14276011815098405	-1.3175180583356547	1
0.36806043359636426	-0.3076082889735068	-0.333813126123381	-1
0.6442422134467254	0.26426552672737413	-2.091368109006374	1
-0.6139074045869267	-0.7061004455428904	-1.2471073835875384	1
-0.5612721071847712	-0.1349219041307426	0.5961009634274295	1
-0.12324037226372098	1.5637803834386363	2.0049292389384483	-1
0.04710829348952418	-1.2100089406942678	-1.137875215521681	1
-0.5900906010172944	0.18416671909409513	2.2149598409149296	-1
1.1027414253715944	1.0614193261308484	-0.4029707884259964	1
-1.0928307430246198	-0.9762893865970362	-1.039945319983767	1
-0.6808957749789136	-1.852750570412095	-1.11506271348076	1
0.6645232933321754	0.9143327937496509	1.541850693542392	-1
-0.5731803686909793	-0.7422957938171866	-1.7650781559120539	1
2.1458828537177546	-2.2330882473540767	2.150076532164369	-1
0.13819783338131267	1.3253442379992804	-1.6466887994588035	1
-0.19421460463674944	-1.7825707693891906	-1.518339522296535	1
0.06269540659396182	0.22134559109372534	1.5194318129974873	-1
-0.08481482764167922	-0.08466850992359201	-0.5557883401860346	-1
1.1433619616381123	1.285216917003205	-0.987623377645162	1
-0.16880999926784823	-0.5637235798847625	-1.262489224562125	1
-1.6959600984399414	-1.8771498453944364	-1.4728233594659674	1
0.6033886809936457	-0.3388390175501029	-1.9616392866170926	1
-0.9706451743901339	-0.694190190569319	0.9933591182502339	-1
0.6405003955421048	-1.2061210850119142	1.9149032378109232	-1
-1.8115636373163406	-0.19703214819242035	1.4025417698036229	-1
0.2129634152848943	-1.1917377627375254	-1.543425623364585	1
-1.45432237578285	2.4078820009670734	-1.1696361726201343	1
-0.9232324563081519	-0.4215913107241881	2.085610004937241	-1
-0.6647759697984635	0.9767516668900639	-1.6352647178190163	1
-0.695662206477668	-0.621824316585211	-0.9082668644358681	1
-0.235718761069883	0.2715163099575396	-1.5973355416282313	1
0.8668493408147544	1.5015049969612893	-1.0559195152005039	1
1.451460322275011	-0.061068432436958905	0.9246285877457581	-1
1.9086863447013966	1.6830912847665016	1.9141766872851305	-1
2.176758506564102	-1.0080948968799412	0.6039187179288285	-1
-0.25628666164326197	1.5034035271683035	1.2462433546270757	-1
-1.1617987340786966	0.9131109066471754	1.8581247680289474	-1
-0.3594723289717807	-2.34540244603385	2.1869534428899513	-1
-1.2243037868398448	-0.2844818648530313	-1.433009317421574	1
-0.8381556342150854	-0.3686914549754209	1.1569726838081804	-1
-0.8252320295332615	1.6981170509492065	-1.7784925451420481	1
0.2487748099375692	-0.8423079028675999	-1.7529421653520185	1
0.47904248365367696	3.882947123320851	-1.4940786376074593	1
0.039690707975169784	-0.1832523345403532	0.26877549861734185	1
-1.1123318566644698	-2.0189639166791826	3.4886671163711545	-1
1.8547751253560076	-1.1910159967693386	-1.8806474038852443	1
-0.1522820581127638	-1.8771291347922159	-0.684574119654324	1
0.676197290940578	0.562819606500978	-2.617494946190477	1
1.5304821150943053	1.1961584159309513	-1.7444361172842886	1
-0.6137537304964554	-1.8836345316031111	0.7474556537570378	-1
1.7143670422798283	0.28859190266417023	-1.553440749125957	1
-0.3739909056449578	-1.7739876453003343	-1.0190226320515903	1
-1.9354823247402138	-2.421119279971606	2.2849114839471714	-1
-0.3799533981260923	-0.05836628012982882	0.23309457549645973	1
-2.3004088608624844	-1.7888826313667514	1.487324831076757	-1
-1.0656578457137575	-2.245878582838743	-2.0387085523484423	1
-0.07270502291567685	-0.001562523753190137	-0.49908301791650095	-1
0.33780869958115134	-0.0998738588795744	0.17439779162026026	1
-0.16306216639788612	0.3661571487894196	3.4890466251220826	-1
1.0656863669947243	-1.4813227909573503	-3.7731494294403154	1
1.703426857263849	-0.653133321347581	-0.9748201777569802	1
0.4439640269581575	1.5805875000599263	-0.6152095136511876	1
-0.3846032893573472	1.68831147950177	-1.9226845983387753	1
-1.409305095702732	1.3956479343545054	2.0858812361884884	-1
1.4281418897517724	-0.6413941406738028	-3.0372318564601812	1
0.2750152974962965	0.679847461800296	-1.778370191049872	1
0.37857093844202205	0.5684421464007678	1.2690735349093902	-1
1.9070425158895887	-0.6586490670450387	1.4616001922862545	-1
2.511593269757837	0.29987143624141976	2.108169462839889	-1
-0.4896472553528206	0.15305006508505933	2.236793713694769	-1
0.7278266508699371	-1.8325789741055598	1.3487112725518842	-1
1.6470557907453476	0.887847167934289	1.2589623133870704	-1
0.9441964416643419	-0.12366713127071456	1.2640329478794259	-1
0.271055138203609	-1.2709923179019986	-1.3586011952827175	1
0.47351531943461783	-0.792513849569789	-2.4194252827503036	1
-1.7851490482522427	0.40059456087338763	-2.9253377980198683	1
-1.250897042471348	0.4415051487808219	3.588232096361761	-1
1.1683171477471521	-0.19398706393952372	-1.7544561587778473	1
0.025962313503421486	-0.33057983629849264	0.5180762196379947	1
0.6508024322999688	-0.9951577545625858	-0.9614519281431488	1
1.4275393582556495	-0.008656106966325492	2.6382731731244986	-1
0.8561236865894549	0.4529718969890434	0.9185589476309892	-1
0.16147177699785228	1.2903646534388962	-1.192449436178875	1
0.16808766311702197	1.1623620500635024	1.9690136425959537	-1
0.6712280181282739	2.1760004194401965	-1.935376247471	1
-0.23817957270137047	1.4251953901776302	1.5200263457943062	-1
0.8241564475669358	1.9953301349688788	-0.6892363201262788	1
0.6794953162456094	-0.3304055598962591	1.483252324848964	-1
1.8790616654244696	-0.44562704277727994	0.7447275898010159	-1
-0.25314077353501274	-0.01519333815777248	-1.0992547450474075	1
-0.40218322189576616	-0.11772325703522386	1.0914570064904316	-1
0.038379586075897906	0.22950395131924195	-2.348009290862329	1
-0.02527482591955161	0.36781724273734173	-1.7996293742783798	1
-0.37357949221966275	0.7173650751784311	2.2742352636838614	-1
0.7749504115793387	0.7474951910844903	2.367165391217635	-1
1.4395128134891655	-0.319488516318055	0.9104167166717405	-1
0.6514952124967262	-3.1718829479526187	-1.0318231432215443	1
0.14108255969385947	0.2735230497059572	-0.39635211463856473	-1
-0.6810752590638942	0.2365762835494572	-1.9372715075691618	1
0.7863021485955244	1.403388855507533	-2.122863854537526	1
-0.44173834011147595	2.399787369923313	-1.7071244960145036	1
1.1038714687673745	-0.2064420596326262	1.8146319465874674	-1
-0.31081047039695253	0.9233662703914269	-1.282376476843098	1
-0.4878923870057774	0.5247707118397511	-1.4804418506504047	1
-1.3608387156499087	0.675053260051512	-1.438316425841782	1
0.19892458894924064	0.09320062520016714	0.22716020441698775	1
2.740237430251722	1.094842219728162	-0.692431068718826	1
-1.4817462635031122	-1.7493040748613145	-3.521843254034552	1
0.7274779581889012	0.7749524644637289	1.6018419492467804	-1
1.415402515212159	0.08211670511409239	1.8620794697386591	-1
-0.04792519143358327	0.01958105267423523	-0.48073973654834196	-1
-1.4546152786683453	-2.371858156905587	1.993491270123728	-1
0.1603839452403882	-0.01633946934687078	-2.5348753855279145	1
1.3541552084954063	-1.0493854603951909	1.060318585766681	-1
-0.9240773796959518	-1.2635855263417746	1.498558626833921	-1
1.5154262204813689	0.5070936543396525	3.285137221409306	-1
4.0565131560411945e-06	-2.5775646738316373	1.5417538137051268	-1
0.2312327150106543	-0.27686761305451096	1.3918853619643534	-1
-0.3796176721032528	0.41486046391745235	2.2272284961842264	-1
0.9022111683811526	-0.3325325951680574	1.4329135978077878	-1
0.8132614484890974	0.08412702504359199	1.5039975694628895	-1
0.502144848368486	-0.1734973668406416	0.26465430723755984	1
-0.1913146197851653	-0.686884689349963	-1.442719264766032	1
0.5974011019007781	-0.7229796377460477	-1.9391367015504732	1
-0.5655408266940833	-0.23292540374168338	1.1725559201623534	-1
-0.4973729006216559	0.029894430383752255	0.14560815863671386	1
-2.309805430188315	0.6603690668971833	0.7892096224824225	-1
-0.4751486384099309	-0.4732524485794814	-2.2111579098508347	1
-0.991605046252047	0.015235807395682893	-2.6708689427420937	1
0.06256965369135763	0.7895930053262641	1.5905877127899966	-1
2.133687107136322	-0.3308063688576528	-0.744253558027514	1
0.8574955262740136	-0.12126123227841373	3.2377369872124064	-1
0.26315413404469135	1.0623071956427013	-1.2432755436361096	1
0.3351863410424687	-0.006200513101447377	1.3092877505863765	-1
-0.0640417958020896	0.9463667593610778	1.0989555356519802	-1
0.4658619435926619	1.3875292707664473	2.3611552392401522	-1
1.2177033830958544	0.07341777466350738	-2.2259565877160092	1
-0.22060214198062006	-1.062483070313345	1.5687530718931406	-1
0.25012578253416595	-1.1590664630965528	0.8043213811453748	-1
-0.24259064476912845	-0.16956030362836755	0.5052152075434735	1
0.40829815117363655	0.039013396577020375	0.33432246843720553	1
0.011814174935794907	-1.2104088484079325	-1.4019419468428986	1
0.43524500960158574	-0.2419666272070024	1.9479454078755778	-1
-0.940653867546601	0.12410719225247543	1.5038818994856042	-1
-0.3471433081742841	0.23299715230550483	-0.5862449715712987	-1
0.01976663800022893	-0.07451333765738286	-0.29543847398777656	-1
-1.245084716665739	1.2136892857189798	-1.2643247037237266	1
-0.1251555360288385	-1.776212474109982	1.0664718908286897	-1
0.42021157959290606	-0.6285028920885712	1.2733369109803128	-1
0.6148841231870242	-0.05941900251179387	-0.3176987886079419	-1
-0.4077920380687545	-0.034197755083399124	0.41403624554930485	1
0.1686570242093815	-1.3467678372354481	1.2489379382075585	-1
-0.20099451469419255	-0.04697505864928831	-1.2077159453325423	1
1.765152052506662	0.39244671082043725	-2.299067318689667	1
0.14819515539299677	-0.18496704240446385	2.4897759412534075	-1
-3.4723929827350357	0.24077101847205765	-2.5368032513920573	1
-1.7741174075943005	1.0418426843245356	-1.3118493632721797	1
-0.2805971318972653	-0.48800302823760755	-1.362847365055424	1
1.2494710987036455	1.077300121447985	-1.8485349686576973	1
-0.05957082362286924	2.22434755667231	-1.8461034174218294	1
-1.063154814524085	-0.11149407642440798	1.571347699161132	-1
0.6832866146578757	1.1387024296719712	-1.3350902096005914	1
-1.5028785422289526	-0.0012083896254787558	-1.9664291093680988	1
-0.3175552197054685	0.18829974789089904	1.5331012057598956	-1
1.5734455736357327	0.46152979487357937	-3.1339196620635255	1
-0.19363424975103485	1.5247364761680098	-2.5873084507391932	1
-1.545248829816802	1.1318845004516858	-0.9773312195544166	1
1.2232494729528118	0.5006403606393275	-2.153196511350636	1
0.24430203272318374	0.038234163955804486	0.29073921147274384	1
-0.05833263126804831	-0.08787095586586946	-1.5236241002297115	1
-1.4170989049200204	-0.023906351977440753	1.8060571617135222	-1
-0.7181970936031521	1.7037357539968023	3.1505137017207767	-1
-1.0635536338846967	-1.47847360234136	-1.6377709480844298	1
-0.92312121163434	0.10211911251734138	-1.0538191622599449	1
0.9048759622497125	-0.007573674511440991	1.3657110082895523	-1
-1.5982587225004254	-1.249537688131352	-1.2732932340030678	1
0.8994220353743299	0.6519082905372862	-2.0833186257991843	1
1.3487180258415423	0.6130816105447595	-1.9337999156376044	1
-1.7905849567078933	1.5527333199954907	-1.1946806073721432	1
-0.4922051079060834	0.017060067148926696	-1.2621163050784394	1
-1.5001210473156352	-0.5007449750036816	1.4566389698483653	-1
1.0253308232395262	-0.8683474018194612	-1.4513614657329106	1
0.833804588630499	-0.2597183694672332	2.2879095712380217	-1
0.802447949680203	-0.0704480969723755	-2.524503075241389	1
-1.3899080445642684	-0.2968716236976728	-2.042016171846243	1
-0.696438108763932	0.5010117401002223	-1.5292151106572558	1
-0.9490595910326904	0.042453759132560415	-1.686887789744586	1
0.02773298246809363	0.4072734628899373	1.9470949358816247	-1
-0.4935210404477758	-0.21741207361376852	1.3398729435201304	-1
-1.6642285189352892	-0.6126438916730226	0.8485223045510507	-1
-0.7291779445161111	-1.0696378337719414	1.2210429170769284	-1
-1.525431004171851	-0.6546785301222372	-2.042847269197935	1
-2.2339282131703126	-0.724969647268321	1.049563503571374	-1
-1.3156590052188801	-1.1372468589577411	-2.215198113433578	1
0.006125773119610083	-2.0691806127185544	-2.9795714008121075	1
-0.36083324599776767	-0.26800479645449965	3.6300320121114997	-1
0.7491316113903495	1.7323927691379928	1.985658918198844	-1
-0.7091194359151103	0.31584820808975195	2.8676789576022217	-1
-2.9200885873755498	0.19769908371935524	-1.5775394136591818	1
0.3694836592274341	0.8129555053114356	1.7301872211543246	-1
-0.6508146266485679	2.139859920477936	-1.6718714449540886	1
-0.8971629259219631	1.2121728806679366	-0.7613960426277405	1
-1.5563364635043337	-1.1154068274474018	1.5003238036057551	-1
0.45214526039493724	0.512232603549345	-2.27752570581901	1
0.9845401776017809	-0.10154856927446011	2.2589888502812387	-1
0.2283906557753748	0.3560161925468107	-1.683143214408121	1
0.2709331694096988	0.725667282902354	-1.5027571830294424	1
-0.5568881120785373	0.5566135986627451	-1.7499969646623952	1
0.9020331066535892	-0.9837885399768109	0.42948098705628796	-1
0.38023560917747734	-2.291024770732574	2.1293103664077395	-1
-0.3142476132201535	-1.290872486052566	-0.657236671819082	1
0.8976902440798489	-1.644549564109147	2.9064248563666255	-1
-0.11107859829300439	0.7982934876007057	1.1341626056613137	-1
0.06591330309317771	-0.17060671578159228	0.5414074418035004	1
-1.0876515994100608	-1.3822576132582534	-1.217931277383068	1
-0.90348681359656	-0.0657386244926541	2.4063526281038112	-1
-0.4628705333558162	-0.00542490374006182	-2.014168030018046	1
1.1108656158638308	0.6847220770536204	1.6002267428592045	-1
-0.7304247823464642	0.19590238726788736	-1.6088193718330208	1
0.4054255121883581	0.8717282241231155	-2.1455356458951194	1
1.9797019460388612	1.663010393600261	-0.4619274245476108	1
0.09462514125340916	0.8134582776049728	-2.3836142298100644	1
0.5610750660446436	-0.6978597517884887	1.8129902805570106	-1
0.8720800439698562	-1.11475502485442	1.0432045519786879	-1
-1.9552717353617326	0.6862198377697841	1.0069023046555143	-1
1.2463746840994696	-0.5849858369663301	-1.6499756318220555	1
-0.14469598511916104	0.1566249454344102	0.30279846078031697	1
2.1083525869761637	0.8934699663027135	-1.1742657484510464	1
0.45823503327774495	-1.5651490515349995	-1.7568516336124191	1
-0.03943920668752168	-0.0362232266016406	-0.05010970483778271	-1
-0.14638858151402567	1.5389032803779703	-1.1980030361995284	1
1.4814954095463337	-0.27511867832697234	2.123322450338369	-1
-1.121561599636451	0.275949047237971	-2.6324327656960884	1
1.7681410662511365	-1.2706930592962065	-1.5389104983426836	1
1.5359730679555872	0.8531141749883832	-1.5826718894956635	1
0.8876926708038577	0.17181555729646927	-2.201540257655372	1
-0.34587736398283747	0.765364698369358	2.272379173969319	-1
-1.006473970036015	0.4910614861343684	-2.2049886836902757	1
-0.3031429069138937	1.1788336274866673	1.1184327820553113	-1
-2.259680344021824	1.4125800417906973	-1.4334816762510227	1
1.520466770761864	-0.2485061184141153	-1.4463949119195685	1
0.2700205168076987	-1.0164505073899102	1.4670594364216236	-1
-0.5938392045634975	0.7217471250143053	0.8773422266635836	-1
-1.003292797400228	-0.18332539865242428	2.5894958657852123	-1
0.4985788470659929	0.006442961368165903	0.15530574927780838	1
-0.2414604730093586	-0.12663451165543008	0.52852475588959	1
-0.008583681283886462	0.18877917190737692	0.26344037509232404	1
-0.6802608562127703	-1.6499953407229797	-1.2638906378657668	1
0.4636538291868406	-1.0564354979159163	-3.252084013077166	1
0.7136746777910835	-0.3964911281847812	1.4590266647219043	-1
0.06033885602785008	0.2649551883648134	2.747705961195621	-1
-2.4754321139892475	0.07461156803894811	1.1812117194071297	-1
-0.42047374191599346	0.07717591355603451	3.614182971760029	-1
0.41879001055938214	1.5452537128380837	-1.2673061892374582	1
-0.7409741656674337	0.7373119590060868	2.3662180708156852	-1
-1.2985357397771278	0.4630849904395843	1.3968163987022453	-1
1.1735120691596128	0.9316999517585179	1.0666681793288397	-1
0.04471835252669552	-0.5618211789516538	-0.4783295303153137	-1
0.30631799760260237	0.2772942092296545	0.2327657888362527	1
0.2911718498212644	-0.6855394969647155	-1.2661347490661128	1
-1.1969968980550107	-0.7326928948893017	1.2321841140876915	-1
0.9779744117627533	0.26976740604767746	-0.9086965810916406	1
-0.8980383212035808	-0.6430526354352016	1.608821044559096	-1
1.3433761045361037	-0.4952713265616471	-1.7405590564121427	1
-1.0260591064434963	0.4488183646711358	1.093818638046518	-1
-0.03096680374609554	1.5163658747765498	1.2345752378843886	-1
1.0304065397952475	1.0221232598057979	-1.669090277084525	1
0.4929678129091789	-1.1509878030622391	-1.5406498289301676	1
-1.500489906961135	-1.3820432958992335	1.5270365498903722	-1
0.21337279790831615	2.0462382746221337	2.727395823078095	-1
-0.11006563439905112	0.5225103077761941	-1.253355607261517	1
0.7807816996564918	-0.07727589451331283	-2.116718997308485	1
0.41355610338264054	0.28721762085500147	-1.2692983620965217	1
0.6060204890997607	-1.2085217693198382	-1.3852633888428783	1
0.42027251967411416	1.1066233108842536	-1.6607524766520012	1
-0.774604509274255	0.15717626401525842	1.4490952639675485	-1
0.030834385247360034	-0.12456164525595206	1.8733530371267841	-1
-1.0327005644520313	0.9534554339552815	-2.8564104864844655	1
0.16945736124044397	0.4329439574359642	-1.7623921757697851	1
-0.3188226176081775	0.16949663166860518	1.8853057727629443	-1
1.3496357976250777	0.5669609323180855	-1.8041977414646242	1
1.3528519434312796	0.21643360089606148	0.8416874326415182	-1
1.3436217056705981	-0.5503657972557288	1.4128975797745822	-1
-0.33150569734872304	2.524773869978708	-0.9079977211749033	1
0.6520745741887896	0.23492074569206306	-1.5704372387060497	1
-0.08368241678402905	0.14800553311766268	-1.7462297648500789	1
-0.5446244599682922	0.18523907979710566	0.3170345120218966	1
1.4461860190635463	0.6685932906501053	-1.1053022608314036	1
-0.5118371392323149	-0.2763163552612815	-2.0451799146119796	1
-0.30204994802106283	-0.44120799944776157	1.1144243973852102	-1
0.8918692409082578	0.7641623403529099	0.8176581956157479	-1
0.8157378190539221	-1.0551944434865754	1.0434601835832904	-1
1.780393298713814	0.15458529520500947	1.2633773650989906	-1
0.2878905284839023	-0.5078510459851637	-0.2217412807015501	-1
-0.1952356660716601	1.515233890438343	1.5433269262527003	-1
-1.5635292406214463	0.9375354677530919	1.280584726374747	-1
0.1412640407930511	-1.4459259875531902	-1.4576215367336722	1
0.049289500069393255	-0.5000590533651288	-1.3529338568298082	1
-0.8343263022015692	1.3875817849074927	1.7248681189090695	-1
2.3462223159062052	-0.3088487595852034	1.0389434166699307	-1
0.04048434458122015	-0.11422365665293346	0.3647433683005098	1
-0.4332030003800061	0.29459715918503826	-3.3056586315672583	1
1.5475756430462768	-1.2168344357189933	1.5131755560126705	-1
-0.6248387827755757	-0.3157330876233976	1.236028554195577	-1
-1.6157933822817674	0.8224239227326338	-1.2419696128705033	1
-1.8141021193749678	-0.7974167691422409	-0.9391175265736731	1
1.442079630421069	-1.0409465759264898	-1.2996719000379606	1
-0.21945094408052757	0.07193000586938021	0.40640132513542115	1
0.39546165522665677	0.10763232344693097	-0.3705105193497241	-1
0.1231891857052499	-1.449168642815469	-1.1792889220216534	1
-0.27632037369298557	-1.0686054408437649	0.9239235852550245	-1
0.697026240739437	0.03642625155119531	-1.7116767994229272	1
-0.4393291019793933	0.3928712562187049	-1.8264076922331107	1
-0.8196301117440672	-1.026243026519366	-2.0501477025241823	1
-0.0805288919670868	-0.15753144753159565	-0.7336332881530645	-1
-0.1476964077283167	0.2694352769546793	-1.2553982032696764	1
-0.820249432676178	0.5992405549919093	-0.7867034660117826	1
0.6850962168159428	-1.5762693933328435	2.0166410558945724	-1
0.8219172048652859	-2.300771120269765	2.545452787436745	-1
-0.4167959631080634	0.6418238450060723	3.481725132265892	-1
0.23753691508786273	1.2244974565710856	1.9163291066306507	-1
1.5497483017107379	0.7785775267109778	1.2146227874461386	-1
0.9000834174081961	0.5034422265305953	-1.5499183776857033	1
-0.021147006011714327	0.21734431039888957	-0.168589391920349	-1
-0.38653399300075186	-1.2513243051328986	-2.5388035558218087	1
1.6656969327729194	0.8521063534826672	-1.4428164294885433	1
1.394610580056874	-0.0052655831215020574	0.8636928758187794	-1
-0.6348724908268244	1.172889051748866	2.1445408420383756	-1
1.1506141047939098	-2.179756664380476	0.845548778597363	-1
0.10265786194253643	1.5144265513014237	-1.0482491464673105	1
1.6192996412494307	-0.4152185439873089	-1.9101726224021038	1
1.6576429471653635	0.44743007722118044	1.917389414193086	-1
-2.518279525499838	-0.5561490792015503	1.4792469477370824	-1
0.2733577914785428	-0.9354095365588259	-1.5615614738270314	1
1.219440674028045	-0.7720409760395339	-0.892762412047305	1
-1.84975386898717	-0.5430201091565587	0.7225395620479953	-1
0.8717736789881775	-0.8559579522336429	1.5457228609858489	-1
0.5695217259648382	-0.5403766807535535	1.3649882394393282	-1
0.5981943019702998	-0.9427144830220107	-1.5495302203853352	1
0.32430967268379496	-0.5965524010625478	2.0546194584393382	-1
1.2633769796496677	0.21786492769114496	1.6863558273424397	-1
0.3978901712065447	1.0774594994728752	1.6483092605301863	-1
0.34754599240127787	-0.22210579180374457	-2.3473748989179013	1
-0.5563725246477053	0.30443626623708575	1.4423925960505373	-1
-1.2999785755617643	-0.6091055641052897	-0.9519229025265317	1
1.3968318506952255	-0.17422843979242988	-1.732278618255439	1
0.1635101117431247	-0.03946737292757087	0.31499866250166253	1
-1.5068094694810776	1.3381795295140284	1.570167940248223	-1
-0.4552570685235538	-0.5196044800530835	1.9808049241088423	-1
-0.45509210996512733	-0.7057829394839492	2.407439168974787	-1
-0.8998162444816107	1.5159184882723544	-0.5020158186789307	1
-1.3561787631389308	-0.5146114767008351	-2.391686736319445	1
-2.2764256083857477	1.5013454171191347	-1.4729174161229208	1
1.2810227333212436	-0.151229655361077	0.9052050044842603	-1
1.0786624361881096	1.9269816858804838	-1.6980366838876164	1
0.9240694842194805	1.7165401551309674	1.3861284197938173	-1
-0.21397016412869585	-0.8021318542784812	1.2125592544626325	-1
-0.23079057503952582	0.9604861721814553	1.8595126815720378	-1
0.5149707622162365	0.09032092699808676	0.19635140007655422	1
1.5870732219001114	-0.0010274986465714456	3.7148012295782995	-1
-1.1835812025577384	0.6119973569194517	0.23367164700950765	-1
0.8947785914588366	-0.12420552919810608	-1.3149842387589412	1
0.11391580138275759	-1.2831380450905585	-1.2864239758754048	1
-0.8169055141271129	0.3167937173128981	-2.2174717777611193	1
0.39279348024314786	1.0852220621617705	-2.702607596511063	1
-0.208249573834273	-1.0935342736173008	-3.3307960704635313	1
0.5342738152603376	0.37311373066114173	-1.5627780655564534	1
-1.161997984036686	0.9628047722219383	2.0732818012615413	-1
0.7801013529308272	1.3036644452958048	-2.9306354234354233	1
-0.6498460914482802	0.599902970985017	2.495103822992074	-1
0.5626763634990242	-0.25994450368258787	0.4578978743774838	1
0.15047459736050156	0.16678560773833978	0.4116182237159769	1
-0.6747937912879745	0.05510704888176738	3.032156989422607	-1
0.24608459474858047	-0.2907298378493277	-1.5766550047500394	1
1.9922875712227486	1.049935913639373	-1.3244042864222076	1
-0.3143703722681767	0.9292395267878583	-2.1950912492169556	1
0.24232968118308995	0.1094366463298614	2.076723810635338	-1
0.9623650638670407	-0.822926101663882	-1.616300840682417	1
0.17324662276653097	0.10420332921679115	-0.38140373043359366	-1
-0.2799058987515274	0.314581582321248	1.8472340183760028	-1
-0.5109499749289775	-2.746535920222165	1.946484827863467	-1
-1.277429917180747	0.8223844020664629	1.2166344243614315	-1
-0.8156271524096697	0.9839164572948342	1.9640457308336	-1
0.12231027611560387	-0.06159981900403669	-0.3568031946975332	-1
-0.5431292200743958	1.7189406086457284	1.268067430198067	-1
0.1471648997703871	-1.7579754866725845	-2.509959545699768	1
1.1579211910427507	-1.6319311382528618	-0.3933245010455457	1
1.218749467747395	1.200681283689145	1.6758462534764007	-1
-1.3265370135606216	0.19375071741330324	-2.473356489732538	1
-0.05609820306194779	-0.031891378087927205	0.4998521433177162	1
2.0223331180779507	-0.06069086891386932	-1.8906705034812732	1
-1.2550052079934886	-0.3388126360950038	-1.2142398329645157	1
-0.28537806902101426	0.7922595404141318	1.6230226768365266	-1
1.697125389377368	0.8330995966454524	-2.5455109704875714	1
-0.4556808154523506	0.805887534116975	-2.084894695310251	1
0.01292458817321614	-0.7157573059874354	2.643629814768759	-1
0.381176750647404	0.012261035819913915	-0.503391236213357	-1
-0.9526208058349487	-0.3488531109701192	-1.9065342580842288	1
-1.7198506809712335	-1.2673399981644058	1.7891159727314134	-1
-1.6987513265929421	-3.02524254677835	2.2809249509931524	-1
-1.4683938674581984	-0.5988616762081522	-1.7221142768921545	1
0.6716052254179289	1.0059541979842161	-1.081733061171596	1
-1.3905455401534497	-1.695454989813662	-1.633490682143993	1
0.42908182198931033	1.5273129017291072	2.6097848655384093	-1
0.4726524835537744	-1.3073146577431345	-0.4052510116260315	1
-0.16779192198159681	0.35519471046220674	-0.4035669385314208	-1
-0.2870123548650074	0.6053784611562316	-1.5663404889329773	1
0.6687365149354313	0.8944216114611323	-1.3040254871346053	1
0.581362453473409	-0.11845057036009021	-1.5145024497457042	1
-0.46631049007002423	-1.4667468019101033	-1.7544389004518541	1
0.33978094470687165	0.5934558950489583	-1.8225807352174472	1
-0.4145334101794389	0.38695479343175343	-1.9452791049002411	1
-0.38329109614048273	1.8162201045213004	-2.3201574055949603	1
0.11349979921651189	-0.7015064605374666	-3.9277779870663574	1
-0.1336148658434449	-0.38153797646673954	-2.504814059774536	1
0.9466225356827761	0.16387580273297736	-1.4352818235385816	1
-2.0778248595612885	-1.2154490502996722	-2.0015628761771564	1
-2.1297683834086563	1.436750650639371	-3.3763938037148358	1
1.049226963666552	1.4102515232117983	-3.017935464279456	1
0.6022200438559395	0.34575648200855374	2.2280645616096484	-1
-0.9831723625855893	0.1107685649429503	-1.7191627646432015	1
-0.6443978041391321	-1.0442339393116011	-1.7525756929642384	1
1.0606422941118026	-0.9518776950717541	1.5119163123678145	-1
1.0982361874212385	0.6628126705598616	-1.4929071107198317	1
2.118858224122558	0.2150140428414792	-1.0538600997861718	1
-0.1715692157248982	-0.1723482290855663	-1.521531092345531	1
1.9536250431320132	0.19214368610975835	-0.5920551175132278	1
-0.8030035069786414	2.061551525778958	-3.5521090442432977	1
-1.5894987257121012	0.687495408795102	1.8129307595028996	-1
1.0704352243381607	0.3969370552249686	-2.1864432534574694	1
-0.31103758947271154	0.05220580854515307	0.5239813173487451	1
0.9962733597153137	0.8067238960426867	-0.9513635363036363	1
-0.11848979538730228	1.230535425010725	1.8702005804974053	-1
0.29957211759403984	0.434269060056582	-1.6177381390418228	1
-0.9956541267819683	-1.4853205314981202	-1.405419632006492	1
-0.0767143849335868	0.8194551030005464	-2.463174136884609	1
0.8450998269575087	0.36623733784448215	1.9682189470302103	-1
0.20092336805679278	0.5980042861213088	0.3353484797308912	1
1.2960074617058024	-1.4030879246446428	-1.769363709786243	1
-0.35537203069339346	-0.015070025940047839	1.6833546743206718	-1
0.10502846368426685	0.08184908188575876	-0.2714198292003846	-1
-1.1996993600143653	-2.00148594228262	-1.6692105754949331	1
-1.128496905027383	0.12940238926756412	-0.6107587342591171	1
0.18397218797254591	0.3277176499774136	1.6014244034581777	-1
-0.9133549326816224	0.22854302691886547	1.782121407257833	-1
0.4311473356606885	-1.39161118483234	-1.395058009122394	1
0.39396813586520857	0.4369294049448452	2.4287067115174135	-1
-0.8757237620826335	-0.38088533564152854	-2.1600852769153467	1
-0.5673319501528129	0.20262814870857654	2.1549804349754247	-1
0.4749420476238222	1.4000033184409242	-3.751677576690737	1
-1.1486290373477483	-0.09831482097666924	0.768135411729047	-1
-0.7707576930287299	0.7253185527303758	-0.9155366070739219	1
0.07283084418052249	1.316923129658944	-0.7594640178259453	1
-1.404968751465214	0.19764566564804242	1.2196202547788606	-1
-0.8264230764367899	-0.22833712866181458	-2.116789076134293	1
-1.4874586441327828	-0.8332923099032545	-1.804429803138353	1
1.1754186769239623	-1.4748764688076665	-0.5522001718877532	1
1.1166238369790848	0.4823678273778532	-0.9022773711973154	1
2.163307056367832	-0.1442403829367468	-1.9961274009695242	1
-1.2787264460577223	-1.51030899974189	2.503630871282259	-1
0.03517128997677759	-2.7162479353539535	1.3610908179764982	-1
-0.6834044714921196	0.7843586270718292	2.6393062410724406	-1
-0.7301853625244408	0.06671201396496658	-2.6329185778707735	1
0.8577948136434822	0.8299052967394924	2.1075262015502485	-1
-0.007134472882255969	2.0313953126928803	1.6154122880383728	-1
-1.0106276209595781	-0.6203796223254586	-1.8545010718878177	1
1.0417880821446237	0.5090268336915794	1.0247678324748855	-1
1.1063524528749524	0.2600974343353893	-1.2026174511576813	1
-0.16441011264840188	-0.6160539439053637	-1.8405916060309946	1
0.3852302052280166	2.952726527123806	2.3698672054022745	-1
0.3783517166879644	0.6172786973168012	1.342633895796901	-1
0.9521250764881768	1.0407535894333586	-1.3594852589703097	1
-0.5638162804620599	-0.6689785801714832	1.9205814968327586	-1
-0.11695111548562544	-0.17981737471572382	0.19211901983306282	1
1.6508034422766902	1.3928025896868343	-0.6480859443122133	1
-1.7582164194007757	-0.5766074462691707	-0.3486551126475993	1
0.9168869495726734	0.09522974742667384	1.4640284218212598	-1
-0.20615150408546679	1.50764640357893	-1.1639279987448972	1
1.7552605302796933	-0.05644645070959203	-1.4838373945259598	1
0.657429364676888	-0.1383166891251553	-1.3164960756830708	1
-2.294992397233656	0.6785277622273079	-1.4510847451004438	1
0.5406839185977321	-1.8386888948288438	-1.8431655251377645	1
1.3964622621143983	-0.26174482827313994	-1.060245505338439	1
0.06293003315916032	-0.4250040186548477	1.0782897056362226	-1
0.7579899191627356	-1.6123507907345713	-0.364589130367913	1
-0.6262116418891651	-1.1196540572512919	-1.193570128151768	1
0.20308367107476094	-0.12715160689329652	0.5241658282462203	1
-2.027398845321007	2.0835969870071764	-3.5748487987508017	1
1.073745105744776	0.0008096074031093888	1.2285977194734725	-1
0.28643964906142033	-0.009475138237210115	-0.18444081288717343	-1
-0.526437080214291	0.9421449132017394	1.4378965001505037	-1
-0.0651539794745025	0.2176378633943678	-2.2160922083952634	1
1.084229187603528	0.19431187135382424	-2.4415105056979596	1
-1.2106360534866256	-0.04808854610787612	2.0142395017916233	-1
0.446590457000279	-1.4704403601572444	1.573543140732086	-1
1.0339308673438568	0.1271915891757631	-1.1077091094850684	1
-0.147400327518977	-1.0213904714845021	1.6079072393027816	-1
0.12040466464334362	-0.3833899846360789	-2.2688234467034514	1
-2.2944074879514473	0.16581975918900962	1.707936894544504	-1
0.41824206635441447	1.239898851832878	-2.0579143168172784	1
-0.6137300851416339	0.1316037863957497	-0.4724557439251614	-1
-1.2856528054456806	1.8752283074102165	-1.4772474248090668	1
1.845680175702772	1.053542047276692	1.2542493634778367	-1
0.4427644544788468	0.0842112886344911	-1.5022679232574347	1
-1.6047003729264264	-0.8668702306657123	-1.503690887785795	1
-1.5965964967859367	2.8842258855017757	-0.7808264156792479	1
-0.12268209566500178	-0.6528835634727775	1.2254522094431393	-1
-0.5543674760872256	0.6376645931549151	-2.0104327788167504	1
1.1746968875443982	0.33264813226851714	-2.3858017771766233	1
-0.9616403728235815	0.7565733547277231	2.2474581894821544	-1
-0.15890682417924826	-1.91396284477418	0.9972182473259075	-1
-0.6398207055364018	-2.4407501423119418	1.5207340448493967	-1
-1.0570285092171519	-2.4313155840701652	-2.7825579941117473	1
-0.6026817767923222	0.7756686658958758	-1.8092922801215243	1
0.7637841800146946	1.0291568162329958	1.2873654190170896	-1
