-1.4332278012722262	-0.9589666487542678	-1.387432821224615	1
0.24984019576302463	1.9317219128954717	-0.41560684081154287	1
-0.5286262970402287	-1.9410886408107033	-1.8276358175624479	1
0.611914541732445	-0.2538229801835344	-0.09504183611611655	-1
-1.9832145740576421	-0.4314093136002387	-0.5930130238026549	1
0.6217886294154815	0.42562509322808767	-2.0859539336825765	1
0.6754068023354378	-3.593172355358692	-1.0892328816682038	1
-2.3041234607828276	0.19079884087486482	-0.15936269203848163	1
0.07300309520552001	2.2238479166144094	3.880422803131162	1
2.2342764116096983	1.1621393184198403	1.4681474837334902	1
2.2268453510622837	0.6150221003311566	-1.5730403137390039	1
-0.246921004077246	-1.6926409759321501	-1.2969264170040036	1
0.04036404177606285	-0.45434709963627196	0.10833818927088136	-1
-2.113569668544108	-0.30289187320843736	-2.9074693858116842	1
-0.36902253752086805	1.308881854048499	-2.7176745233516972	1
-0.29306070076696433	1.884883540322167	0.2560225891430923	1
-2.31130165825413	0.7210642439746378	-1.5644939435561478	1
1.8088708052831894	-3.113679206473198	0.2213008266583503	1
-0.2323784596377147	1.9132463300886964	-0.8586645585471208	1
0.49848514058657184	-1.549238825695976	0.14663481656027766	1
-1.8035160169793676	0.42042323749869714	1.1998781019103637	1
-0.3120466571430981	-0.23802018254005822	-0.3986477227834655	-1
1.5218050409025514	-1.68439122792942	3.787709109499735	1
-0.17359205089301702	-0.4197815757783308	0.035563992756278584	-1
-0.8644402379739727	-0.20558131551935402	2.7741967463994794	1
-0.8099528391726489	-2.3313730030613504	0.46362496643908235	1
1.4810349177881776	1.936451377118644	0.04275841248566045	1
0.12745703665780544	-1.443157545944592	1.62376397115545	1
-0.0339804543118047	-0.7432291212179756	0.03472145442144904	-1
1.468633222058425	-2.551678688040614	0.7053703021022779	1
2.123601841103625	0.15263107773331536	-0.7081026108294971	1
0.7576455817455675	-0.045900234629437243	-2.2372896114720353	1
0.1528653124816539	2.761176171852011	0.19660065377076233	1
0.27482095429782594	0.3988299853838485	-0.7241576762305498	-1
-0.5567513104110178	-0.2679599688898502	0.44472088378971103	-1
0.6133546644097548	-1.9190257711376035	-0.36843662380000686	1
-1.9278763641801206	-2.521175253387942	1.376091316602821	1
-0.8028108973685424	-0.3864785467357209	2.7515417276522105	1
-1.251350566996288	1.2696822819803848	0.9476720343042964	1
-0.8897643591727464	-3.6351247093778523	-1.3174132775130634	1
0.01784871479097186	-0.026427440733557656	0.04548240645654353	1
-1.1106495966876646	0.12602954242047698	3.165213449356529	1
-2.184783758999825	-1.6388083773686022	-2.272123101313838	1
-0.5432325712928444	-2.0466228389411785	0.47748097255735156	1
0.0430148472742582	1.2803734427330362	0.9929035785736492	1
-0.546572113619028	1.9715869337370144	-0.6536693132503157	1
-0.25017288977366364	-0.17118849346571655	0.36511971494014805	-1
2.2177418902363657	-2.2754768710195727	0.032718072716571275	1
1.8771423827298697	0.30402968533737706	-2.216090133884048	1
0.3342196009079708	-0.3757903248984045	-0.15033106054084136	-1
1.2401468308134134	1.243916964231759	-1.1883240337277365	1
0.9638092845293651	2.0103415858978892	0.4278279527150571	1
0.2976896574095892	0.43886395311861026	-0.5863754848285467	-1
-2.8482667716974785	1.2096332522436897	1.9629009212806532	1
-0.938377043743409	0.1505512612006015	-2.034270142840167	1
0.14079388764392964	-2.5459640600708666	1.7702098611012853	1
-1.4902845656504742	-0.12930136171538803	1.3163501588840179	1
1.4366270034939612	-1.1398024343909847	0.14907236300230797	1
-1.2180114950180938	-1.5451309226868948	-0.9419706030037225	1
0.7721790800656652	-0.8783459260229752	-1.023214618615821	1
-0.11195930481441153	-0.05135915517139786	0.8174168142925453	-1
-0.28450186802036503	1.32666029670401	1.2410928037511626	1
-0.5426236576462732	-0.23225263904480642	0.03233575285981661	-1
1.164740447887341	0.30706549149953566	-1.6078618694957776	1
0.26274193862862427	-1.4137937504406122	2.1554313939701406	1
2.006165586081635	0.16010079640810698	0.144115479139315	1
1.3808539171193062	1.169905221233185	1.05304388780324	1
0.6296965713519992	-0.35822602630001277	2.5150911281810666	1
-1.0559465466973523	-0.8222787683817341	-2.3378305153851557	1
1.1790626545313256	2.3546233474947345	2.129476519646923	1
0.8531287616860581	-1.6681539333205475	1.434336984852186	1
-1.2517855547660193	-1.3489831770869742	0.2006729026775183	1
0.13554502604321583	2.109931274420421	1.016570628011514	1
1.6714187123386157	-1.9070077394782736	-0.8301565078462874	1
-1.8324295442421064	-1.460852252865573	1.1491958419395933	1
-0.6945075619179951	-0.5934127619364078	2.5581577724355435	1
-0.026251662877487623	2.3518397878367137	-0.277140846755808	1
-2.6367227222679985	-1.2279458136594732	1.855973585954207	1
0.9052865949162651	-1.44092306888198	-1.085681399003397	1
-1.5613865281938584	1.0667592282015321	0.9872106068984624	1
-1.2626086229711695	0.7325646845513557	-1.1560057547546039	1
-0.4795642494204614	2.5939552693070285	1.632355009957366	1
-0.37169595954619394	0.22299518854040168	-0.6064312824771714	-1
-1.919451672045883	-0.654562933539286	0.7670405210757553	1
0.10378240801565931	-1.9298110125695178	-0.2464621972315605	1
-0.12930911951335003	1.8660898615735626	-0.1963353435911263	1
1.0347268252025377	2.0680908988512696	1.7492622179862727	1
1.4241055482559433	-0.595672919862767	-1.703188826114875	1
0.014323292397601866	0.5179536432533323	-3.0293226623227127	1
2.760200003000112	0.6319807180850596	0.14361692107826624	1
-1.7871166233560842	-0.629056413978746	-0.16003074307608026	1
0.3806026488245272	-0.16108206688209714	0.06666210622971247	-1
-1.8808167979625225	0.592385187793356	-0.9263349733877458	1
-0.8495809960078962	-1.0265609888825187	1.4780858680794253	1
-2.043673583618168	-0.24842869485612468	0.5682528196477024	1
-2.544683143894711	2.860869314869495	-2.620773471656685	1
-0.09881397144538975	2.973282813840195	-2.8075280047505604	1
0.8890351547631812	-1.885964198770108	1.0709462500696898	1
0.9051039338238517	-1.382477420472773	-2.19976597440777	1
0.5356229662232337	-0.7118634016269136	-2.2898112996182576	1
-0.14242812476642383	-0.10208495872327289	-1.9174684232927837	1
0.7721476310415727	1.3481854530490707	-1.5286700670893234	1
-0.5091151869722035	0.7828765142658038	0.8229731625305801	1
1.1346076940097591	-0.9202012608605774	1.624985848149151	1
1.7376771852512845	-1.0554996699302404	0.43264425059699574	1
0.47106511567327797	-1.3716956162252152	2.487508249453913	1
-2.854311088696321	0.46841040823070257	-0.6844280701104106	1
-1.9913001659134113	-0.12580054702610521	0.6730859295484637	1
-0.4161545566593463	-0.5089340454208768	1.387946783043601	1
-2.090044762853583	0.0666669879342868	0.7157578178255599	1
-0.4684380090118584	0.03054478708198685	2.260498520255024	1
0.39820049417983794	-2.4263282169444467	0.9605539194051189	1
-0.4111775345282055	-0.6381455789307164	-1.8235687616878433	1
0.9464664177722028	-1.9084786802750309	1.5354999059284602	1
-1.828359291941399	-1.638744196068542	1.5109452927314202	1
1.0829429469725094	0.8884602167108802	1.7245011128427548	1
-2.7511046639177494	0.20983914449824642	0.20199437099699763	1
-1.6033494799366377	-0.27600813323207674	-2.113265527838358	1
1.5242401359148667	1.809946004817273	-0.07392256668177874	1
-0.08544587018585062	1.8654206891373506	0.5856002167174336	1
1.702119674462255	0.5827866508102592	-1.6869702679802683	1
2.022679231519275	0.17343576287364043	0.7704043390334381	1
-1.9332622804037736	1.7860521790033435	1.2321297875430424	1
-0.7570033040586746	-0.5873814490436324	-1.2680862336874508	1
0.32972178077880887	-2.0622752842331185	-0.05017943818744087	1
-1.229617863211011	0.24554066720785728	-1.4395978545515957	1
-1.259336575774194	1.5449392835550353	1.36421947077516	1
-1.9353017768901517	-0.6049591360360473	1.9380103901274075	1
-0.1563506734291083	-1.33832478382997	-0.9107803185324361	1
0.1829905444023291	-0.3411531827170143	0.33033783936567374	-1
0.6303115181791965	0.27084239459339227	-1.520138978571345	1
-2.1834616847351804	0.9201925922222634	0.8668083002553466	1
1.9396136590431123	-0.22017411052352667	-1.27648352810971	1
-1.2798482947194059	0.005285536125738713	-0.44333795843306506	1
-1.6722315878616147	1.7997524827887021	-0.4603599458084389	1
1.8011521401124224	0.1962796129100536	0.2176723464209193	1
-0.04107063999402796	-0.002539676980944739	-0.014333885397057645	1
-1.4257378852639617	-0.5198758297394163	-1.4735284707353342	1
-2.0627770624747326	-0.6418855195905188	-1.826944765826519	1
0.5594028482757761	1.0373526278178042	1.4377674050056766	1
-1.0046492897449708	-1.7413567273147241	-1.631415419207796	1
1.260811426539827	-1.9609968637446418	1.1113491692966406	1
1.6343466979228263	0.4754114177484806	0.971623210668033	1
2.6526584492015575	-0.8868699184424351	0.12395451347838295	1
-0.6174182801790201	0.4872599659931146	1.8751063842960836	1
1.9217235010822846	0.2212220210425622	-1.7208792366097274	1
1.536728352124645	-1.9941755743543088	-0.6126168287930958	1
1.4627697206032952	1.405741895704002	-0.132458231377304	1
-0.6591499395390668	-1.1509170965595248	-1.0617090612898208	1
-0.5519146042969825	2.50164145633721	1.0478883439491853	1
-0.8919360451536154	-1.2522056887573085	-1.1438120103443787	1
0.13629381088683487	0.3596347497046065	0.44230526882585736	-1
0.5644942475724097	2.693005081624172	0.4512013447674632	1
-2.32570128652193	2.302917812054747	0.4545626236443872	1
2.0782683346992146	2.171718420422444	1.5461081746078462	1
-0.7674187368314637	-2.1335068811655473	0.6052317543323558	1
-0.7600079390701856	-1.137780742661765	1.8934360468688098	1
1.6661530803949547	-1.0719330735379526	2.262214933594019	1
0.2652291954905128	0.6178131252543291	-2.035346981785575	1
1.1549406202495498	0.9775037785340861	1.3859674623531444	1
0.00019904746497755065	-0.5333071566214669	2.835775648601752	1
1.8810555624172631	0.726684192685676	1.3315637230287787	1
-0.5114789596886209	0.34212932748896385	-1.4207276975083938	1
1.5943130326222312	2.4709420415349426	-1.123944870108169	1
1.0722521940460878	-1.4999509732072236	-1.4573796617669355	1
0.6145714073363135	0.17239306478144037	-2.7408214421672783	1
2.5571706360514046	0.6328600533514448	0.5677427236635992	1
0.3802802162754503	-0.15574087138681825	1.5931829848014059	1
1.680245876834789	0.39913532515825023	2.625723607723904	1
1.0179768449115782	1.007575701035714	1.5830608337232839	1
-1.2973091435874466	-0.5375795836659165	1.2121693743760136	1
1.5855596430639611	-1.5967716341733458	1.6404652228270553	1
-0.4671484834319935	3.046968719758113	0.6513440075839441	1
0.22977071782292097	0.23574914147869178	-0.35504985969081115	-1
0.3667058055025963	1.9273731838749053	-0.4067429052755792	1
-1.2418168959345934	-1.7106507477732908	-0.01676062047684366	1
-3.0673132630090945	-0.887268753475466	1.1373913340750543	1
-0.5334953409149894	1.9102815021277904	0.0324091924624144	1
1.123734239053475	0.2101055220266581	2.018067030314109	1
1.1456252696520681	-2.8013640757658473	3.2474942204039943	1
-0.20368543939998857	0.5184599521040281	0.032998695432058564	-1
1.5238298701902018	0.6142446886938618	-0.9601272719044986	1
0.8782819345732986	-1.021147363189718	-1.8893566819610514	1
1.9573491202397	1.4751839517349448	-1.7641448572859366	1
0.5253781026741614	-0.5732565951808672	-2.520580792955644	1
1.7483144927961334	-1.8305165787505555	0.8707416407555112	1
-0.13263838972532255	-0.14482496316116084	-0.4131702166672614	-1
-2.000794664940603	-0.9201486183974789	1.91881637016338	1
2.217579019336333	-1.059684633534338	0.7488384486326899	1
2.2870428770247133	0.4312065326990179	0.3254570310283856	1
0.6577255100329663	-0.012912906324709324	1.7032717470629404	1
-0.518693816384248	-2.162312297333348	0.9592173551536607	1
-0.6628290022925044	1.6438403236845591	-0.03002023372097282	1
1.0929299620326258	-0.3695640160616108	1.1182969863570174	1
-0.6318573463868421	-3.0326972405949886	-0.5715236991140323	1
0.3501130326487535	-0.2657221047112315	-0.5537891174721661	-1
2.143444308645252	-1.4249791032883885	1.5801800798344594	1
0.18844009375936846	-0.007113128262880523	0.7368708685611927	-1
1.5481469150206701	1.0824745679258396	-1.3831917172004418	1
-2.1326260566604844	-1.0764092040462754	-0.9776166549512939	1
1.4231556659454858	0.2227390019029848	-1.3643507292275254	1
0.33309000051643567	-0.20903412422030868	-0.690409132826866	-1
0.1583053650357133	1.6859728893380796	0.5191754057754501	1
-2.396359960542452	-0.9792032810208836	-0.41556706372083	1
0.07727531771092572	0.5706524120926249	-0.29474260818727727	-1
-2.648640927392801	-1.0428801616084578	-0.21214029327563377	1
-2.1502607450280076	1.6994258091531178	-1.8787880581539422	1
1.9754886528144031	-0.7947795223493535	-1.4940909288138724	1
1.2061818956502999	0.8075543186526103	2.1427257635563186	1
0.4715871463645658	-0.6642634266948224	-2.4360025546443045	1
-0.08432814410938658	-1.0500316690446334	-1.2110998299300841	1
0.7053940964663049	-0.21654335335018948	0.04711948218089704	-1
-1.655353095125219	1.6915391376487057	0.4310382758846974	1
-2.22610466597852	0.2346479224970485	-0.8208153041698862	1
-2.6003780427226633	-0.7916465730768205	1.6873147218185995	1
0.5794187318177055	1.7833798976632527	-1.320521611275281	1
0.2572178412827476	0.1944628534577463	1.4844073355529963	1
1.1447640768260117	-0.3275250599603431	1.608623152611214	1
1.8539288598127206	-1.9173081175015823	0.48876670020282226	1
-0.3923551747551004	-2.946084265490953	0.37212844560553365	1
-0.8436132235491334	-0.2045348445075789	2.737832005390473	1
2.0534079320321985	1.3271889364155973	-0.453340024784565	1
-2.12514235451638	-2.5973298163143226	-0.39813141760493387	1
-1.1254340732969892	0.8899889123776524	-0.6563678518969436	1
0.6675145161563234	1.020364671886713	1.33149600945718	1
1.2564564728981913	1.0418790801395519	-1.9757332685475864	1
-2.0346307258509904	0.8830143971033199	-0.22922745297064445	1
0.3356750912464931	-0.7574127231690659	-0.049380517338939424	-1
-0.45245674578087314	-1.6454429054429776	-0.7245891406145506	1
0.273673752915892	-0.2440565760474203	-0.5136718351786955	-1
-0.722506440944962	1.402236787168032	-1.6995230622837794	1
-1.1336780791225158	0.5168143192366974	1.6201502336841953	1
-1.0887656579055385	1.1168440600976015	1.4610297337362899	1
0.30398630762380763	-3.3051527535190726	0.6530463600373959	1
2.6187854967509763	0.20577565168087233	-0.20355943103910573	1
1.3879512636084663	-1.4300133574131184	-1.4854185351881632	1
2.226647851741582	0.3679557649349394	0.16175791601401335	1
1.580039590286771	0.6755970506251723	1.5308103142917606	1
-0.38151743055900994	-0.34410256086489965	0.08394291915462704	-1
-0.9046722272439164	2.043779178430989	3.0834242191880072	1
0.8149441488626907	1.2931898248098506	0.911054689387168	1
2.626289631322651	-3.5203123764991657	-0.05885138172025509	1
1.3283492861011919	0.5707289893363687	2.3619397246851874	1
-1.7089692186387886	-0.8161753088168685	0.21620624819189954	1
-1.7558291444778535	-1.2262956751595966	-0.48882651512376485	1
2.237655256132324	1.2532845280336657	0.7908311484646005	1
2.262852073237506	-0.11888383798278968	1.274805057514652	1
-0.9635584214453732	-1.2335454631691833	0.55519263833355	1
-2.651233573229441	-2.7335797182149006	1.754996157178633	1
1.7198348693735173	0.1079732485600345	0.432964760566269	1
-1.521248971236361	-0.06559064289325248	-1.2344764046637713	1
1.1971336230231175	0.03352673011635632	-1.059239010645785	1
1.5529186471216987	2.0711294382772376	-0.9273117691250803	1
1.7864423904351883	0.6766187190515012	0.6264192576469589	1
2.3003051950704747	2.630659550814862	-1.435555178603693	1
-0.8411955978139396	-1.6486207197335379	1.8319595489891383	1
1.62578770654997	0.680077078433039	-0.666975109887284	1
-0.7707764007384853	0.5552170115145865	2.1003912819610138	1
-1.151038518332189	0.19564493220217952	-1.5462835038468372	1
-1.191652818298392	-1.0572819187770641	-1.148451073152002	1
0.44127796829310484	-2.058265467689204	-0.11908338200521242	1
-2.182482102150406	0.3421747044705037	0.3480819930975543	1
0.21139068203422975	1.2938562054397007	-0.6522593203240872	1
0.5274539136881035	-0.24705212859118433	-0.021381138193108027	-1
0.84113759966965	-1.3247505093151593	0.7583991371112071	1
0.05952450507870116	-0.06058981110765658	0.043984926983848274	1
-0.266431365588883	1.415744340704409	3.210827007506694	1
1.277400200952759	-0.9406847195087531	0.13732568507702536	1
-0.039422841577591516	1.1632633833901485	-0.8088307832911897	1
0.09565871804492379	-0.8468235393103344	-2.1518535269403625	1
1.2903592024263328	0.00257108626873778	0.9313205870629897	1
1.443019435936294	-0.8702930087897023	1.1637466608218032	1
2.236558136825053	-0.6740206412991696	1.7247910532771873	1
-0.5157219232671482	1.8911547646091507	1.8082763627532776	1
-1.6299375181412414	1.324367192041613	-0.9396267869985464	1
-0.18567496393276553	-1.4848858449819888	1.0453190515565396	1
1.5669791771259223	-1.4202863629556095	0.5118492915252991	1
-0.154163905264631	2.5116156985780465	0.7606178560884255	1
1.2807005478319495	2.173122521828814	0.03314250040693731	1
1.81565577044909	-3.1142784133542394	0.5041165763620777	1
0.04348523298823767	-1.6749658408866992	-0.47100396289962654	1
0.5580354507756612	0.22971116063164346	0.6197946893949431	-1
-2.832111813458502	0.5895584799340358	0.9720418953488857	1
1.8089239465043128	1.6489364814633007	1.1265952758505446	1
1.5877286911508728	-1.7514824052700473	-1.3069544097662176	1
-1.5520265826998918	-0.7835141210525444	-0.6981295505600582	1
1.5484143743768901	-0.4073761384407061	-0.295510741802883	1
0.3823797517836188	0.5590456622476606	0.23518550578509934	-1
-2.2196489762231826	-0.8217017447618963	-0.15998771871865938	1
2.0420302726560884	-0.3668846972646023	2.217675441813015	1
2.794300673605769	-0.19702316461235936	0.6995321234305902	1
0.3275087090041475	1.5140141470523765	1.0379045685339743	1
0.2980970046706004	-0.8113009919286852	1.816869625705111	1
-0.3569684444928646	1.7362453604246832	2.045706600750716	1
1.5172114002561194	0.6254490858489055	-2.115065744319592	1
-0.08864862675800507	2.062827650820027	0.16590897338164068	1
0.05453595966011225	-0.65228479546575	-0.2382009450957319	-1
0.42639350270316756	-1.0109720197941625	-1.6624088903813674	1
-3.007063009727716	-0.06660824930868602	0.8257508608961067	1
1.4887231585028848	-0.6278624668267769	-1.880289686269832	1
0.8747905334318147	-1.6241252295529025	0.03912493960873834	1
0.22242545621216483	-1.066242308157195	1.7172414209426796	1
3.2472452246890304	1.0569475143140419	-1.8384796541092225	1
1.782574772189053	-2.114679095911744	-2.745889717876973	1
0.971768642111694	-1.8937011762006524	-0.7074702626569329	1
0.8252894374401563	0.2540931831080896	2.0276578900355147	1
-0.27152738076616817	-2.001968691096648	0.8543516553226722	1
-2.170154449106561	0.47918058842899264	0.24698475464971328	1
0.7438401168637029	-2.7553055615165194	-0.4420778758453163	1
2.1651888337372824	2.1835635029689335	-0.3029122270283682	1
2.140716329527529	-0.7882799512577325	-0.7188917735435827	1
-1.21459714325426	-1.659737024697667	-0.03470044604317386	1
1.8968592220602993	-2.765165516853555	-0.5768975597741723	1
0.6297311950247882	-1.1125646489883672	-0.6542335930868357	1
2.409299050781285	-0.6294534867599867	0.5121974776511871	1
0.8756545554222186	0.24873699254257187	-1.849927432178066	1
-1.8591281163671227	-1.482191528590148	-1.9200559166778786	1
-1.828605553908854	0.9175069138757428	1.0001847475271022	1
-0.060370926316451065	-1.8570644725447365	-0.721275064805608	1
-0.09518151984857595	1.34353742666012	-2.823275494095619	1
0.28607801781832065	0.039439737053168326	0.7079202948524368	-1
1.7232036295758164	2.2318691949726412	0.5667170761461657	1
-1.508780063607394	1.2793915462719307	-2.661265949713853	1
-1.8025202498357822	2.179254610771419	-0.08135982690961945	1
-2.7526409320253356	-0.38173579592102863	-1.2659436816929879	1
0.17737482170687552	0.07966795463855428	-0.04338314148739514	1
-1.991320287414641	1.0664802198570986	0.9275046004339362	1
-1.9608759991395925	0.6636396884771227	2.1237776462001516	1
-1.622445516462725	-0.3916980500284881	1.5713939164309383	1
0.19858095100222964	2.0376328456617214	-1.8097388244006383	1
-0.33835270797990724	2.3312202751968183	-0.4495202241607099	1
0.35295565278237273	-1.7449637470691846	-0.5500485629226621	1
-3.835078271789855	-0.8681725635239458	0.6820332212989713	1
-1.6921436646924732	-0.5183821044771859	-0.543769901388404	1
-1.9043891023894899	-0.554270645426024	-0.6224713122208387	1
2.256419920714961	-0.8476834316287835	1.6016623836439763	1
0.09928647167252798	0.011234248447007386	0.10437788022622708	1
-0.39369858684670983	1.86113098188258	-0.9691951614376777	1
-1.307053009979841	-1.4741933785016914	-0.938239336828295	1
0.7236580320116169	1.548404522973223	0.23120643051491685	1
1.4700240608666815	1.0419751753213373	0.8323169949014653	1
0.8498796139449956	2.098706399850551	0.1039390157422635	1
-0.3471770994648493	-0.515563807916583	-2.524057006941443	1
0.44380927563647515	-1.404815489410809	2.1955291601053064	1
-0.1660823881256307	-1.0626513738377965	-1.5128284732187551	1
1.2165200508158864	0.16407273317380064	-1.4200371630009194	1
-0.8093555521869524	0.06510393116666126	-1.4820438242496865	1
-1.9128198277110315	2.2846944149232487	1.2966692252094667	1
-0.19659101693489123	0.8390407710996131	2.393964815425023	1
0.8113322876406734	0.27678571861732126	-0.20850367175487738	-1
0.6377578149900377	-0.5449767589323768	1.9223984182217013	1
-0.9157638056224349	1.475665416568293	0.955455992601953	1
-1.2678234040733838	1.113188801679215	1.83481531165031	1
1.5570114810955724	-1.7883908425896111	3.437935428346923	1
1.5877805838358567	-0.34562399283293777	-0.026575962912691684	1
-1.767889624077258	0.13698432711935954	-0.9976143359741987	1
-0.058629632738182454	1.5666321074347052	2.259514297119879	1
1.0000837662054873	1.4394621488476842	-1.054205022510927	1
-2.5983073060600774	-1.4053521600448855	-0.5456738414513281	1
1.8626429391021486	2.5603194102468425	-0.3512833098477448	1
0.17587616356172456	2.113564789489641	2.9898669839285223	1
-0.4448769956262889	0.4008881085694281	1.6147061839000154	1
-0.44835988698568896	1.0388733038736633	-1.9114580507036447	1
1.892630283172601	-0.3404950077910568	-2.358057115185674	1
-1.13467599093518	-1.970795745393112	1.6644849277718798	1
-0.0564030647563398	0.1324359613314726	-0.13154295636751343	1
0.7510221745867578	0.23882340413320413	2.3132046319049016	1
0.6852114362413602	1.231105181681703	-1.519450571483909	1
1.6866188680648282	-1.5420897328839231	0.88261237884772	1
-1.6413932570175334	-0.5438854524365748	0.20119082223466184	1
-0.18060212125298208	0.28990861208754204	2.603044667879126	1
-0.5415848575128699	2.307471601307343	0.04104938710587352	1
-0.9074327402579835	2.728972484145551	3.073624004932247	1
0.6678928495089945	-1.1947154595568175	2.4435917647784993	1
0.015316338254158096	-0.42428280445744077	0.40274880710707506	-1
-1.5405615440252824	2.6687034966824346	-1.3188825217400955	1
1.4119912757331543	-0.2913364199264238	-0.6638283209731899	1
0.03456584964300167	0.03205463337982341	0.048133288116650366	1
0.7924380585052222	-0.7326030875304586	-0.8071509910204846	1
0.10944144095619725	-0.7158392268512468	0.06427075700514678	-1
1.5416871264258525	2.808354240242146	1.9136447967775496	1
-1.4936433722970757	0.8281379759099484	1.782652954548792	1
-1.033720435858018	1.8190849850778372	-3.148971760539873	1
-1.8563777540418416	-1.1136503078113318	0.4461008853765983	1
-0.7398316546851548	-0.6204024094314922	3.194383133807515	1
0.4195720556304895	-2.04234249011508	-1.4577704649513685	1
-1.192109702251339	1.8433940134033469	-1.167707172650705	1
-0.013366642811214831	-0.03402888415454659	0.031528579384293154	1
0.4430602915790809	-0.14076296166331104	0.33338347498177434	-1
-0.3778416469847462	1.059861054016146	2.869771969665077	1
-0.7919514172289748	-3.4222033179100007	0.030571233424090714	1
2.676056453848427	1.7377862378401945	0.9511338552189235	1
-1.242637696940852	1.0711681631878793	2.5207098313959317	1
1.204804269752735	-0.9343599087879304	2.876753687730851	1
-1.30488340848557	0.544096905689503	-0.8781378649805691	1
0.31307398753715615	-1.0323988577356853	-1.3695385505532185	1
-0.18921157600532118	0.7059618887797792	0.16391482964140455	-1
1.349592138743851	1.480900340273144	1.2741060892915945	1
0.22541005496912114	-1.5962983790711007	0.9108467589385192	1
-2.1634313153399733	0.3879940660812291	2.538186045878274	1
-0.7184944208518506	1.1363018759638814	1.3998487537317277	1
1.2899791353540515	-2.941869541894075	-0.19220410190049733	1
0.16673391579370472	1.081081709264028	-2.1437441745500756	1
0.9841961990677159	2.0787972602036624	1.5734637249011105	1
-1.4231956494909492	0.5042718685968839	-1.0847728672236432	1
0.24593139260706734	-0.06447704412491043	0.4060584920757087	-1
0.12823801758185488	-1.0167797800662415	1.9581825968304183	1
-0.07811229689913354	1.3253601149286536	-0.6316145430453953	1
0.41944812296333944	0.7096346993167463	0.060215615085267966	-1
-1.4402802256647291	1.5570589582246657	-0.8567407151163399	1
0.8704600958220836	-0.49064361965086223	1.6484483889655188	1
-0.4659874860476099	-0.07381784404496833	-1.628432257983267	1
1.1611634680018466	1.3534555568646618	0.0850342089794719	1
1.0986372754586544	1.9778374481199235	0.07622530522625981	1
0.8326270322591973	-1.4220860439480179	0.8272122292344151	1
0.24311427579961267	-0.6329500057765074	-1.231271984494237	1
1.1383256499035734	-1.4684077104412225	0.8209654018841457	1
-1.3331736202880093	0.0904645507670403	1.4408141808127655	1
0.7113844691868528	-0.4283793413782546	1.2308660527481239	1
-1.0710814975000171	-0.8209231580908707	-2.0459151074849897	1
-0.009261639751712286	2.0569822005202862	-1.3500087280681152	1
-0.9501344313748901	-0.5393109140394174	-0.8089122253649639	1
-0.667703057810726	1.1084366712441558	-1.3066781143837107	1
2.2220578708447807	1.75254017946392	-0.5030091717440105	1
0.7885853220069119	0.07333922702545356	0.4005720541018603	-1
1.7359678538603192	-0.7432925637041661	-0.6644404367846262	1
-1.372882699950186	0.9541704802327806	0.9653950825735524	1
0.03565435307385417	0.028411319926611556	0.10348864767804497	1
-1.2369336418802817	-0.3786911677017515	-1.7464946003181319	1
-2.065707260887545	0.36420984551469415	-0.9813240610503692	1
-0.47729673577209125	-0.5016395105389283	-0.1477100115892604	-1
1.5991079242790875	-0.37992422029620876	-2.2481258878192634	1
0.4402006200169002	-2.689303241649106	0.8885420626499042	1
-1.698902518753497	1.248327997032703	0.08251767198969652	1
-0.591161887708061	-0.4122331286288219	0.5539749840803819	-1
-2.5739537238539554	0.4805198706681426	-1.3553041907573766	1
-1.4161838849469304	-0.648575668330034	-2.17351307168607	1
-1.0167441094329246	1.8167224121473655	0.33184729399757446	1
-1.6414778413812012	0.5849158527028351	0.6747870434817825	1
1.0388514425428734	-0.343223337548314	1.285287155924598	1
4.12690842118815	0.24433316280381012	-0.6210473287887416	1
-0.8544239591675274	-0.9755716373514913	0.4178429379019556	1
-0.4878007094963661	-1.3511413395841922	2.3964893849641573	1
-2.108718585205102	-0.5536746031834766	3.414825545437396	1
0.804824287744377	-1.9400842321247525	1.026053328244343	1
2.0562572149192486	1.0759111750557482	0.02829938852673234	1
0.9377682576309554	1.1102477672448037	2.5401402508554902	1
-1.019294869030281	-1.0942472638685952	-1.2060868517738794	1
-0.3659752486514317	-0.5041207360413829	0.22619034545466135	-1
0.6418108244965433	0.9862020638480085	1.8388433818452996	1
1.7507602524292092	0.7366629988471712	-1.4343494019668015	1
-1.5480625921996323	2.1282494975394046	-1.25297673253554	1
0.4714651297427364	-0.07306389615188683	1.7396953936556463	1
-1.4584867243239172	-2.0454440938799676	-0.07839606906072921	1
1.8441836540742078	-1.8408144226231897	-0.8163678080836531	1
0.7031720120662783	0.6139824979418862	-2.008739212266394	1
-0.22181534611067336	0.8178785884401674	2.120060161630415	1
-1.835466814108636	0.18048283849219607	1.996970116821034	1
1.0505296876270616	-1.2235113764391148	1.2951851342898737	1
-0.7912992648358614	0.572504603558214	-3.022225305344338	1
-0.07052970215387552	1.989191714166464	0.1790204074248447	1
-2.914539691136128	2.1955103953719837	-0.5785995459248219	1
-0.6792942468634069	0.12238985214584727	0.24702776889624367	-1
-3.0371453444461727	-0.4088776561384201	-1.2689136354521957	1
0.06298076786054727	-0.9129721486585629	1.6981789044137212	1
-0.5895803992970183	-2.7462061535981115	1.517689092643884	1
0.9207457989935335	-0.08197922664656926	2.957088569017495	1
0.8144325473098468	-0.06530232994650184	-1.782639075220451	1
1.2423473968742003	-1.3841435942517908	-2.012600820114305	1
-1.2116158630002456	0.43908705505669887	-0.7216751162942494	1
0.6789740890575617	-0.2977588026259955	-0.07147744584155372	-1
-0.5179980826630067	0.05449498167077202	1.6979866843271458	1
-1.2882301415145494	-0.4664901986761738	-0.7328678380612202	1
2.874451220657207	-0.0075468315966509165	1.4238231868842641	1
-0.0036539954980027763	1.5029428193190315	0.5101955839132599	1
0.35344247550966346	-1.2134066274768474	-1.0361263150224194	1
-0.4400603183946162	0.19582984745063683	0.8841656844169422	-1
-0.00991058137002964	0.029457185496130543	-0.03386444425000085	1
-1.5180167461745513	0.639222768798519	-0.07115269551219218	1
-0.15225364871600092	2.097700450219385	-0.4524106619390136	1
0.9612258614705828	-1.0558198436604564	0.9798666307265447	1
0.7851089990964263	-3.292414137655654	0.0783989193164234	1
0.2543768576164513	0.619878004495548	0.34121658951838796	-1
2.299670996383498	-0.04365058698058364	-1.1383046215450232	1
-0.5624475743494999	-2.2637261329776592	-0.6879294684811309	1
-2.0374348475784636	0.472790604456373	1.1663333052328906	1
-2.330102644154639	1.004136978915537	-0.8172116250258289	1
-0.5527798949787223	1.3927430759044346	2.6688399645765903	1
-0.24612503661246748	2.980293392408031	-0.9678042951742121	1
0.12467423221046539	2.4530660172542462	3.449303255512956	1
2.429562937359954	0.11970541257836888	-1.2284360009086985	1
-0.3421601020433978	-0.9059607210174419	-0.0765308927283482	-1
-2.6210898771364994	-0.9745693690957342	0.04311896486657686	1
-0.7046451736494324	1.3942329872890058	1.4652929606347622	1
-1.0037591401592656	0.6537472279336476	1.0101209065068613	1
-1.0945733447420127	-2.2634038210350758	-1.0893453956806223	1
-2.872568978790439	-0.396251346938728	0.20487043233131247	1
0.41636413616266754	0.9941590190260867	-0.28875968539483066	-1
1.2618459647166897	1.7768921652241165	-0.174281241690468	1
-1.5692388673018827	0.19929491613707545	-0.8401754064964446	1
1.423734079138802	-1.4916447003590003	1.1752009231686467	1
-1.663477734969215	-0.6498214578418948	0.9415622929181147	1
-1.7549505483793673	0.4463276055400426	-0.6190607768923415	1
-1.151715810044173	-1.7164051353240348	-1.099020443714371	1
-0.34285716204595595	-0.3411337757720112	2.1194861919498877	1
0.984307824275097	-0.981856297190878	1.9963764048883548	1
-1.3055198085586048	-0.05713306034585834	1.9022669182047471	1
0.277024619585785	-0.16204466440098222	1.4773067080491527	1
1.4456954745668873	-0.8030423570984181	1.533806148806827	1
-1.7817631112285888	-0.9252001435815242	0.33524784163372967	1
0.10138914126003823	-0.04303605278737655	-2.8055970501007694	1
0.5339882333059613	-1.5659516875976283	1.7405270100173689	1
1.9335620300897571	-0.012379130451204437	-0.3618924329443867	1
-0.9396799661816455	-0.7214356735152989	-1.688691990499953	1
0.5319676819416954	-1.5224462667557725	1.3875986576071733	1
-0.5700695293851322	-2.057655363168323	0.12542651305966612	1
-2.288346351475494	-2.2939196524202705	0.22404832306848982	1
1.4074329307633948	1.130771270149888	1.3455249692088513	1
-0.5257582028958395	-1.7235900956376586	1.507103929296934	1
1.4406525222236528	-0.36575207315948055	-0.2424911192547582	1
0.09084451127547055	-0.08865767951111983	-0.0253394036857272	1
1.4596745539364382	2.066933919861862	0.6294116892806062	1
1.6860304642553503	-0.6578603707311828	-0.9887639399421626	1
2.983254389112001	0.28867272896351726	1.3439506056909534	1
0.1513912599320974	0.7125137394899173	-0.4501254510616389	-1
-0.43864032046626567	-0.1997812412190876	0.5270161167640524	-1
-1.7360912748504609	0.41550969315169045	0.9770150157646543	1
1.7266838708588694	-2.3943270188181653	0.2336926386157905	1
-1.1705360690262125	1.6579364588691077	1.7267054493908438	1
-1.2372395890426229	1.5968824026935355	2.358895535713849	1
-0.9118099253593779	2.090663471986432	0.5799616755300672	1
-1.570930578295906	0.21270554066936975	-0.7198156000488545	1
0.6764822884785286	-0.43900723043868656	3.2595592433916587	1
0.6819414307535074	2.592677020775832	0.3119209945694203	1
0.8353194128766672	-0.9905341097265846	1.7792368051211707	1
-1.4570370455924977	-0.703257346623805	-1.6050781567230612	1
-0.6430774023960983	-1.9501130740102934	0.9033338965709509	1
0.14948904701974772	0.9492620235899827	-2.491404183565815	1
-1.3638022862656796	-0.4552436620189394	0.6825968973877071	1
-1.1335716138011434	-1.449993734788657	-0.7475695933325561	1
1.9268425415643726	-2.193553571935972	0.4760512487102725	1
-0.2985885410793768	-0.29309300872612676	0.6014183012364669	-1
-1.5718341219501535	0.3046816402940734	0.20214924490214675	1
0.6341503334162804	-1.6529585490790866	-1.5259425750751663	1
-0.10440060268778809	1.5587659267596288	-1.0238939735547565	1
2.508778819382585	1.3030929624175893	-0.06090213136767387	1
-0.6740171216776255	-0.5641560658396733	0.10334154879197822	-1
-0.8362052745115501	0.9767672906399543	0.48628227287501785	1
0.6009829535682216	-0.6415215466635702	-2.264003183192739	1
-0.041518569853826584	-2.8386257290096037	-0.7794690449041625	1
-1.6012678716370428	-0.5355095982534729	0.17425996032877245	1
-0.007382301349875481	1.7963374007815687	-1.9215855189774849	1
1.9018440766093487	-2.716230784089362	-1.0184159673750957	1
-1.6886828766403035	-1.6130558930900156	0.664240804178583	1
2.0473767411134647	1.8937097879129663	-0.7002074785661163	1
-2.2159949570369983	-2.0790075449607404	-0.6759142025464411	1
-0.9533748026919332	-2.2361319399208517	0.5039857670803437	1
1.8082939732322418	-0.1496458955079929	-0.25076756624822677	1
1.5480313699550772	0.23277013778749012	-0.8995144217577267	1
2.783087322883388	-2.6677146362555293	0.17585151600993057	1
0.13761961732218295	2.0934383064829714	-1.6015978663007548	1
-2.8726384819016877	-0.09994119141505876	1.5948990479722198	1
0.16792258029359708	-1.5112636197391573	-1.0113043212285528	1
-2.62093987906784	0.6019102306509163	0.595978365710443	1
0.134044159446776	-0.15130999083813274	-1.848542049039578	1
1.6869853036005529	-0.3846059329885255	0.94576256321208	1
0.9546326606831533	0.7225312057643485	-1.2973390896894486	1
-2.234373081186232	0.2042978724395072	-0.7580113500396252	1
-1.6710662388715734	1.4306367099644084	1.6868231394103268	1
-0.40227211130389084	-0.5646351744591869	-0.08936950884310664	-1
-0.002310788520996176	0.8907848235441098	1.5558518481669827	1
1.3642273704727206	-2.655758172641949	0.6069906976492749	1
-0.9139207558400222	-2.333574599468184	2.210697456641922	1
-0.43529805172708	-0.7236625882462044	0.48737109912298127	-1
-2.191329532618057	1.2901779704311622	0.15750115498096212	1
-0.6553731014051577	2.29496353127569	-1.8754106626921125	1
-0.5462133704013642	3.549328915856263	1.380810513529193	1
-1.3897086899133326	0.0027065995204429653	1.2928752768063965	1
-0.8732164676060643	1.5996019866246258	0.16776741818652402	1
1.8203225983595932	1.0215238963215725	0.2210395190484205	1
-2.3002326712537324	-0.012521515225048047	0.12250011664729815	1
0.8415437040797367	1.020167632217941	-1.6284969168448287	1
1.3602732626769152	1.0882429253243537	3.1984251743472205	1
-0.7974304045033227	-2.421401769124945	-2.7995532881425387	1
0.46892549612647993	-2.029419047745178	0.4151141084164023	1
0.42767772158136086	0.5334517598949098	-2.17993984934391	1
1.8553551149251137	0.26513515665423665	-3.4151878243810945	1
-2.2296209845925765	-0.18609488754513975	-0.5450423192455556	1
3.0559354111986377	-1.1952955753817895	-0.7294488526933917	1
0.09054018554233392	0.4740341503495794	0.40205994013611024	-1
-0.8743649339967161	-1.886148763092737	1.6948924801881509	1
1.445739938433534	-1.3475387912340016	0.2954479503751154	1
-1.1724312336296778	-0.30790660603406395	1.3824619081640037	1
0.5087082741172975	-1.2444379954314775	-1.097229691794972	1
-0.5589028537480207	-0.5823626106984161	-1.7605246616941796	1
-1.6660700811129443	1.1510998709790963	0.6531220133207416	1
-1.8117176144595715	-1.1169985105299234	0.7112385631647308	1
-1.7149741767078885	-1.390651480944099	0.03003415864730314	1
1.5541214238653371	-2.5890541274112904	1.0140938316531698	1
0.4923472534924994	-2.4316552259444215	-0.12113147466982445	1
-1.592209646860836	1.0065859711384046	1.5529010197377717	1
0.3390680135675151	0.8938322015318783	1.8744174329261711	1
2.193725629035141	1.3174881022391256	1.7798830276695377	1
-2.080788541517545	-1.391584389235491	-1.5190099190437787	1
1.4277314380661328	2.661983543540698	-2.8249251436281453	1
2.6549030680586805	-0.01682862524679479	0.24752769386091947	1
3.1494452954404424	-0.8697071216056709	-0.5404344791780186	1
1.1822435464529142	-0.4890679728418649	-0.6636844247793465	1
0.5853652831768337	-0.0792845466097074	-0.5050984328407216	-1
1.135499250210489	-0.9914690255264873	2.8771571302778467	1
1.502774234879881	-0.863539098710565	-1.6841934965397232	1
-2.647740974295333	2.540908349875397	0.19681279231230947	1
0.8413186692004607	-0.16353796671642337	-1.5133425362859054	1
-1.6911627666213902	1.3593987447175917	-0.23923668491487543	1
1.6111141995342928	1.4852860933465224	0.20371180676848927	1
0.8692718729912566	1.4230959008140573	1.3730972624712252	1
-1.8460318601756713	1.082145467416485	0.1587973821715108	1
-0.40881603103668	-1.7612540987439425	0.9551418346583429	1
-0.027311545941448773	0.38936332805830187	-0.40285918179331015	-1
2.4723459720084104	-0.021935699968171685	-0.20999724676975778	1
2.1257888030837897	-0.8714475339579661	0.7945602870399596	1
-0.6895103301376428	-0.250278950952128	-2.340308543628711	1
0.6435703250261675	-1.011653516916407	-2.3172847287138216	1
1.9644189168963169	-1.737381781666555	0.022754820664512013	1
-0.7058602015263742	-1.8515376747087453	-0.04635844476352295	1
0.18487963753613396	-0.7614948118333623	0.08476930570932424	-1
-1.489056498481522	-3.339298236937217	-0.09398139013437397	1
0.3113938889149249	2.5607580211063214	0.13947218912950302	1
2.58735311184882	0.17301878006524687	-1.8185468457060536	1
-0.469546736003655	0.3697641228069992	0.20822232055853535	-1
-0.11308806248118314	-0.007585635912677692	2.611109377676244	1
-0.6913956739888443	0.30615314272501437	-2.561735855986966	1
1.216321899295102	-1.1732956754266781	0.894203901253003	1
0.3944731938306694	1.4434918726698573	2.1215423649408356	1
0.3571302192804815	-0.4847316136914498	1.3071293372612112	1
1.1246413237457857	-0.8319638656373523	-0.6977331429305536	1
-0.1645540689550114	0.4738788510573962	0.46870460053360424	-1
0.7953784520862032	-1.2266203402882407	0.2576681044781878	1
0.7417699085580496	-1.7732988702501138	1.7119859206619434	1
-1.3611010872357494	-2.303389858872285	-2.2827251741226657	1
-0.09437530913133518	-1.4632962492245736	-0.7829598344497286	1
1.9164865349946372	-2.828112032722162	-0.03485288963467666	1
-1.0622382640008547	0.875134320264257	-2.6629779393831154	1
-0.01997793606333903	-1.4912660215177294	0.9261896931756871	1
0.5920118071923909	-0.37437611874880705	-0.4859581013009774	-1
-2.2787125652055336	-0.9000034873601361	0.18943796906957203	1
-2.251798639440406	0.6218646423175518	-0.12299330229715941	1
-0.5230261625944557	-0.232353689721916	-1.7753857755171913	1
-1.361352947085157	0.6934005144486128	-1.9779106014690824	1
0.0716844084719523	0.10577472103458907	0.08795559991520642	1
2.1785936712812655	0.8542859520800334	-0.790401441863753	1
2.1211725484174107	1.708074329578466	-0.35138697439528266	1
-0.7055082050819574	1.723914853851178	-0.742363180833449	1
-0.9568924883058036	1.1798885903251688	-1.016228057394334	1
1.8003647011454613	1.519272130327892	0.6762562262651792	1
0.11562398376159053	-2.5059270825131783	1.321931955618556	1
1.5575477081267581	-0.663516830470392	1.0784754170472444	1
0.8726684317095086	0.14489234344749152	2.1169818738423576	1
-1.2942378124626468	0.8564839604023977	0.6860612114803337	1
-1.1712145085336148	2.255283173687536	2.3657762443135306	1
2.1222786563726164	-0.5638862448392462	-0.43917687984423687	1
2.3682315926529323	2.9855754006333566	-1.3005379090865747	1
-0.4006331865744151	-2.6515507923765806	-2.194443004980073	1
-1.5825691710166803	-0.0018265984159532862	-1.0501920823822473	1
2.8189912291130796	-1.0020341896264027	-0.002135197992221505	1
1.0055546394700974	-1.2571997290291632	0.7941818657032407	1
-1.8524874869706747	-1.1110875573528047	2.070471792191385	1
-1.0606323873553554	1.5752414059181086	-0.7879850748745993	1
-1.3742670548914788	-2.1913681215892162	-0.011716625048524264	1
0.012352904566163263	-1.1541018197261177	2.307508478050785	1
-1.0112526245013373	1.1677768785101836	1.389425454511118	1
0.06138278138015123	-0.3826996752661942	0.27189444927788076	-1
0.09398387127525887	2.50906189466109	-1.6163260303869627	1
-1.1446541569814404	-1.5050541643884014	0.7801440771766179	1
1.3347756203929724	-0.981296878912819	-0.9506273807118819	1
0.80385910199333	-1.6723932514750806	0.40262187277028577	1
-0.4363391615861499	-0.27420776752160136	-0.0949280872231268	-1
0.040483885780452075	0.3498958220644289	2.483341851412529	1
-2.500161732625283	-0.9783948522454871	0.8135114159339	1
-2.2698527444190213	-0.15269668086575577	1.7893221086669675	1
1.7349099136908923	-1.6276748470022666	0.18389459662681185	1
-0.38459786729703077	-8.361903215793193e-05	-3.640777048821045	1
-2.5592816594072145	-2.123573266261819	0.6167845542431054	1
1.1740694336710562	-1.4223396787370775	0.20390087205012708	1
-1.216139019809743	0.846799666484966	0.6170083127259947	1
1.9930088975343456	-1.6350986964992877	0.15533136004642356	1
0.009679632748725334	-2.183721643922493	0.14408292233389491	1
-0.18480127292668447	0.8728762521144369	-2.3480199882575015	1
1.9105229149845129	0.9650466925851484	-1.9343866368987972	1
0.9938635994960505	-0.4968350406640257	-1.4535637784547524	1
-1.5888543560166704	-1.344356002025408	0.6312065666704622	1
-1.2501877619314492	2.30887409717028	0.40703001802995376	1
1.5417322167560652	1.1185008872422926	-1.9752541017384653	1
-0.3598976706216056	-3.3663935200258406	0.29560779894213285	1
0.04761663445230833	2.1943527790949946	-0.4411576205513005	1
-0.5566296722801047	0.8176598195808246	1.307956639019584	1
-0.09268669396001272	0.5708699297192839	1.9626104165433444	1
-3.0212288959585427	1.7512137524233462	1.1016266939004997	1
0.9588660955094249	-0.1475468277814755	1.7514457758499822	1
0.35707039744662294	-2.6846223490050147	-2.2329277495681206	1
-2.8326730176158987	-0.20485841095849222	0.19465303531695705	1
0.9844863152095189	-2.175423667695802	0.8834762722401786	1
-0.15303109551935867	1.4025658395107707	-1.5973767384453401	1
2.66893644463976	1.5481371535203075	0.644017451913745	1
-0.33545617329714666	1.1368077417021105	-2.0619926360586303	1
-1.387442488514584	0.9942970299343054	-1.221988099461938	1
2.541254173214493	0.21911242435821812	0.7981480717786318	1
1.3573830850688353	-0.058581726174891664	1.2728393895588388	1
0.2141687004581726	-0.5203592752944399	2.9195797321938763	1
-0.10574354936727372	0.7001283523321569	-0.4349757578791622	-1
0.2508666780674669	0.3773533826999982	-0.4533320533526562	-1
0.2855535744784098	1.1714137675335423	-2.342889534259773	1
-1.4069324251410023	-0.05140225843875476	1.273876097234845	1
0.8903528996559085	-0.040991104711978275	-1.545380806866656	1
-0.11634334751774512	1.5978925359306368	-2.1306450525022202	1
-0.1956681579723311	-2.868457964125734	1.1994408815650945	1
-1.0572811366463597	-0.31255361273496274	-1.530822165707913	1
-2.3643417377771234	0.7618568783796096	0.2994027231208525	1
-0.8713150075301621	-2.1140691821710744	-3.049030428403713	1
1.5769001894785435	2.0257643838448205	-0.8635364630591664	1
1.6071813593668365	0.6365390047159358	-0.6666712683738925	1
-0.9813797632320487	-1.7842635639999673	0.8782107577791936	1
0.8700484713939229	-1.6726938914183984	0.7161935616235523	1
2.1798607331462962	-0.8438323944014239	1.35667337197664	1
-2.4952306235193826	-1.2434338526516173	0.46558001940900706	1
2.6280680050614036	0.9000881054848531	-1.361934843442429	1
1.5267055891777184	-0.472910489919357	-2.3747271125030216	1
0.7319602354857536	2.2687364366806624	-0.6750941066033468	1
1.7501923552196583	-0.002560690168868721	-0.6036439485181402	1
-0.12454777522579347	-0.4247368862214556	-2.39917280805345	1
2.2403548327190546	0.6607432687136364	0.3349330682317754	1
1.477206651743954	-1.8991939215956608	0.35434823452981506	1
0.7518251474920956	-2.028092566474807	-2.1296509977172193	1
-0.7999719571744228	-1.633825571762814	-0.0958334910794657	1
1.5701122061030306	-1.10875644566147	-1.560399778528603	1
0.13919448006763202	-1.9600364097484677	-1.4747574610034122	1
0.9203728955532614	1.6927613165956545	1.2430642691868086	1
-0.47104985383836684	0.8778912009394917	0.8826304061494922	1
0.06592723732938921	-1.2606277187957666	-1.50344055305009	1
0.8966733685340174	3.383701708568056	-1.7214649672471964	1
1.7237822547111175	1.5303241808151669	-0.4026646521639551	1
-1.278157496751506	3.349090810917665	0.39870192282580363	1
1.4439691129321899	-2.3403039546523035	1.3943434140280622	1
-1.4857306851281002	1.8619428077305165	-0.021775870550670377	1
-0.7882656687429777	-0.5183988096079154	1.7196944182001783	1
2.0472841374757706	-0.13567206504398616	1.601009327597745	1
-2.1013932766748464	2.0764798321850138	-0.21566255092924094	1
1.4162358204504764	-0.5122939982498698	0.07942515961853928	1
1.3985125642704648	-0.6205603103114874	1.5991759257224782	1
-0.020892375111461324	2.1948112816718695	-1.6030801749837864	1
0.434601542289437	-0.25873146956033316	-0.36043917336859654	-1
-2.245288900366102	0.5234289913335153	-0.5973765359277668	1
-1.2559449469002577	-2.4001252864419604	0.15361098896587516	1
-1.216697461363605	0.6245685191490473	1.4473446714833678	1
-0.3365050500635116	-1.53144548212815	-3.303845491531023	1
-0.8203476291396734	-0.3661750176590906	0.5850506117994587	-1
0.6207650218654209	-1.639275504664486	-1.6909741332196557	1
-1.2835636403817348	-1.0230894062394968	0.4130152657703633	1
1.8857421360954718	1.0651417958059994	1.2140885898618303	1
0.4952648641339633	-0.24240568504803509	0.18138309064935626	-1
0.4843588069551408	1.2495893866619778	-1.4910898341752716	1
0.12836727563170328	1.399542817507408	0.6674328659825519	1
-1.1286328146617273	-1.0457559102290634	0.21220802695182073	1
0.9626478402177813	0.3285869504040279	0.988199199614273	1
0.1347598057883655	1.737783309887873	-0.35947147834412896	1
-1.9508381686137346	0.732691369937716	1.964772115317808	1
1.612713211886482	-0.12431819674894841	0.7771297532863586	1
-1.3343612193718661	2.8141862771914523	1.5199548491740074	1
-2.6825940868934754	-0.1362339238039044	-0.7673483553786898	1
-0.849490768255355	1.5770399947313658	1.6860339974999798	1
-1.7548774287901356	1.2544010930340659	-0.6665089459675106	1
0.6757699333570196	1.468571569381217	-0.22172150811092806	1
1.6475105154166871	-1.0316273631002288	-0.33352926773340785	1
0.8874862211395511	-2.208779793449592	1.3789220854366973	1
-0.24788519653774646	1.7334166920042553	0.895902647296692	1
-0.2025769972613848	1.0684986399034893	-2.2143312479881945	1
-0.04619100463815369	-0.4117670872375605	1.5667922012306197	1
0.3137094911210737	1.1928786820876276	-1.3980277773955285	1
-1.7341781265893985	-0.03532238400148985	1.2360785930322677	1
-0.47994329366181426	-1.5101258424392978	-1.6546665513954457	1
0.8600041100338279	-2.7547385920590894	-1.5280216915807303	1
-0.43445893205671937	-2.0083330568650943	-0.9203215470760657	1
0.8537368895414513	1.618357793464289	0.06309497924262167	1
0.5188974060237963	-2.1377023429563113	-0.36511473688066426	1
-0.183132495352504	-2.4634399094678416	0.18217121897005406	1
0.5301634472604936	-2.051852258757961	-0.1712649635826219	1
-1.6845117877754663	0.9842355459007154	-1.1228552847411526	1
-2.173861497821851	-1.4759197290131632	2.525851171918312	1
-2.897487379423012	-1.5396997257326084	-0.854119701310042	1
0.2753753871854086	1.6913827443051987	-2.039737168199447	1
0.6641226672292754	3.159784545883666	-0.4298554687705743	1
1.1701925686293755	2.2271813587437146	-0.46049685549772423	1
