0.22365915865470437	-2.0597406371136673	0.22221199336218125	1
-0.08382079516610513	-2.2532834615474115	-0.5143276478947817	1
-3.047418194893738	-0.12287554063500015	0.9064299366122278	-1
-0.16313027657324874	-1.6220031500103271	0.3612683769947627	1
1.682185188240752	0.3171118338053649	-0.17397039302719497	-1
0.8047756305758229	1.353619409178151	-1.1280687073818032	1
0.2697695601429873	-2.1173905845643732	0.5927738441582795	1
-0.17714660946032137	2.077993215011459	0.4283599233929081	1
0.559718094730441	-1.386325921559332	0.20769862678177034	1
1.872010981253163	-0.05521821963780202	0.9242617790805217	-1
-0.21256679975679688	1.218516875286755	-0.7360823132883312	1
-0.7471732846507002	-1.9879230672116055	0.9617366907873559	1
0.30907307937471473	1.3518422962747267	-1.0828108350502865	1
-0.8031962466991809	-1.478557089946023	-1.0786909815299868	1
2.3285435140785338	0.2229287106834275	1.0974637558234424	-1
-0.07191666284817966	0.43608745721876796	0.1656180312996134	-1
-1.4476453301191092	0.8654331550952197	0.5832208212862	-1
1.9445431812412572	0.6858936001488218	-1.9983819500660918	-1
2.3777328803137467	0.24986902741579387	-0.5538340403421436	-1
-0.5687981080700445	1.2249309740499645	0.6044477908978482	1
2.0947152613759132	-0.3350761097275023	-1.060395592943305	-1
2.4008676988965334	0.16989929818355762	0.21149884292915777	-1
0.58616529042447	-1.5603716522665114	-0.6724514668213328	1
0.6264663899642888	-3.113745339765455	1.2567044875407094	1
-2.051040801546255	0.044084655892845465	-0.7799176561212571	-1
-0.5706211006309732	-2.103854685126812	-0.47616550370094207	1
0.002626611727289619	1.4526792227050749	0.8701763542593819	1
1.8338231250679677	-0.9886834339849417	-0.9682984264072486	-1
-3.306776169218706	-0.7203433089081738	-0.6110150474820717	-1
-0.07074050376347887	0.5735063983868234	0.3014986116554985	-1
1.8981873444087285	1.0779255304008009	-0.2749869283928788	-1
-0.8693669438912045	-1.8332677358842977	0.01501797406334232	1
-2.338719833748853	-0.818345714033074	0.38807685802604086	-1
0.3815081605693935	-0.02504050943699726	0.12169618410122032	1
1.448285535681001	-0.4617252327323443	-0.06248763365634974	-1
1.6780937487743657	-0.233900189152491	0.10854997718964682	-1
2.4041941377513902	0.6654146709205234	0.40198602013390866	-1
-1.8493495996281373	-0.820294907655652	-0.5129998395457243	-1
0.3647513631607402	-1.3472547656593599	-1.9125569553427533	1
-0.47415207580024293	-1.4355229132835827	-1.2237168369775409	1
0.31148615674885793	2.27870369868633	1.371778776763315	1
-2.590896952101774	-0.18585243084643874	0.12815207680028323	-1
-0.15315257817040698	1.6600379150681601	0.1735746099305593	1
2.272604420862881	-0.37019161397912415	0.7977551325447776	-1
-1.3974376715062113	-0.4434885691565537	-0.5750268026792286	-1
1.8542815008450397	0.38264073484777505	-1.3133004099442795	-1
1.598910844101263	0.5168448764770389	0.8917883103221131	-1
-0.4695486673575503	2.6688373987229124	-1.9436283112539539	1
-0.42350849515806144	2.0628150704442825	1.7367864626168943	1
0.7387540291756822	-1.964069763390821	1.0995389132198758	1
-0.05101665859188464	-2.2137671234604386	0.02233204179210252	1
-0.6759536139459897	1.7418601619110465	0.9867416900803767	1
-0.2888686694354405	2.407293923197127	0.05441195414247538	1
-2.808342404514846	0.4366186023124047	-0.27516285934433415	-1
-0.6682249488480805	-2.005639002804004	0.2161828689459908	1
-0.6200414246519428	-2.912405378814177	1.1313263802136408	1
-1.7734725051680067	-0.17624706046336144	0.9621226454934022	-1
-0.4241284268914989	-1.629684017408015	1.4043556596504203	1
-2.1639766365033126	-1.1969545213592683	0.3987990776553112	-1
1.5021088770162576	0.5650856396298284	-1.3470994874350128	-1
0.3551128904937962	-2.1866310755520577	0.08449801387395404	1
0.7483215343834908	1.6520598793817625	0.37182545028532843	1
-0.4291718762435367	-1.8278123639237667	1.291861689115451	1
1.8158320211066243	-0.4569259394073448	1.3290145072113222	-1
-0.5358988717131771	2.0530314853147575	-0.6590868671341015	1
1.2623364096216774	-1.9183721209413207	-1.496739233585716	1
2.6762553839003744	-0.5694590450630388	-1.594795496287013	-1
-0.21448857730894744	2.5389702615916567	-0.6607477782602023	1
1.9898147453999457	-0.386337812820933	1.6160954252306858	-1
1.8874388492846976	-0.2754515473862794	0.6694779094898441	-1
0.44727078086709277	2.316169399424516	0.40756731351789527	1
-1.3865371978073229	-0.8123328450012539	-0.6527833319753922	-1
-2.088178152182236	0.5539048316128905	0.3125214198792299	-1
1.2377721203421093	0.46924300983803113	0.18176757956964698	-1
-0.2484325297532941	-0.009721337512707234	0.33399929137315476	1
1.3782990276628861	-2.7317890990230747	-0.6658600489710762	1
0.13872416529992837	1.6386339985343026	0.2737393589518908	1
-0.24270320249201324	0.01262485004645515	0.09372680968345162	1
-0.9467271054239901	1.9065356593175382	1.5048191435546372	1
-0.05281922769669476	1.5496602176950587	0.854611223091488	1
-2.929723655508953	1.1605603763022851	-0.8986723647100887	-1
2.998530960326128	1.8778970525742225	0.20929467682192873	-1
0.6894631459231085	1.6160452605279645	0.8289605387239981	1
0.16921618953766993	-0.47386082943809227	-0.11060684216821487	-1
-2.856162985957432	-0.31888570117558546	-0.8262430188999735	-1
0.5386313340572644	0.0663441402507187	-0.32138784301197787	1
1.197802713371832	-2.1134173401207703	0.034288676466827143	1
-0.9505105449402541	1.3317850087100396	0.4914994807865239	1
-3.3789572820077027	-0.1671003370825368	-0.13973471284278086	-1
-0.29679229058657763	1.7021793969955266	0.8113659659233629	1
1.5702268948985523	0.15411330875560608	0.171411987208909	-1
2.5321094484421005	0.12488524040598184	-1.0660625966137978	-1
0.131161687007905	1.5880558016525201	0.207015628745432	1
-0.22172466392899645	1.4600014658123366	0.2728093346399492	1
-1.5537892174567296	-1.9176979690909055	-0.045113848027792836	1
-0.28859509913252196	0.8162659639697845	-2.020916525013485	1
0.5020015612496637	-1.733732939177533	-1.064579643889538	1
0.21662967689846538	0.9498311142863165	0.11462272946600238	-1
0.8492144580830383	3.102737960005084	-1.4820335839569387	1
-0.34862583981507944	1.7339982083101828	-0.438847068283311	1
0.489340537200611	2.25735588147793	-0.15622768519668392	1
0.4499358062320957	0.02891700436915497	-0.35341238031502153	1
0.06498366260176251	-2.0510962376431885	-1.601669311897309	1
-0.4113469410598174	-1.4060749919828097	1.1687642437483448	1
2.1480925273504665	-0.09282017763528838	-0.30278203194264847	-1
2.53293653333359	0.5493508074949953	-0.5132200921768919	-1
0.6305212867897187	-2.540925387076938	-0.7025353494007969	1
1.7540667418121458	-0.40093276087420604	-0.2376002184486009	-1
0.05309846562550344	-2.0668577358508737	1.4281776505815866	1
-2.2762255184901568	1.2420388355340495	-1.008081974168914	-1
0.5405014454611499	-1.0168574654297977	-1.7347856427901445	1
-2.004812851236713	0.1863196487720696	-0.3297247221738883	-1
2.23640302087556	-0.748764556954481	-0.46767543716260457	-1
-2.4953148245814645	-0.0069918047586536615	-1.3383686290933372	-1
-0.653851654052529	-1.5267406965464863	0.5684214187256498	1
1.6020344402355933	-0.2856993869826137	-0.5002305438519431	-1
-2.645769436653236	-0.8871697573853519	0.11891271381838862	-1
-0.06867560238878222	0.5760114891731806	0.02284008587998483	-1
-0.3925911478060711	-1.8927215634274113	-0.6850211061222133	1
2.7264530062904324	0.8363991140608807	1.6269643913605862	-1
1.472833408507931	-0.9272541790603323	0.12134235745371494	-1
-0.5350805394794785	-1.598788828312906	0.47015401284867764	1
0.01819950621880215	-1.7335323930194577	-1.1028662048449174	1
-0.5077152429785523	-1.8592718167182465	-1.4256037038973106	1
2.323353572636288	-0.1886717162879855	-0.7065183684200629	-1
0.34139574357684693	-1.5344541000938767	-1.5379882792068196	1
0.41196277692673916	-1.9811275909671786	0.5153874814278612	1
2.6612205769207535	-0.13871134013385075	0.03085516784512124	-1
0.717284224451573	-0.050191234770567694	-0.12931778791170573	1
-1.4826253515604784	2.9108146844279186	2.407158608224659	1
-2.1957283522234046	0.6875532230670693	-0.8680023005039614	-1
2.8436992373142265	0.8657539387790207	0.44360502806822333	-1
0.3742822467099163	0.051521769611615024	0.093131688079222	1
0.8798788697957977	3.301164548093588	-0.8667612276481527	1
-1.0924991781335343	-1.6680110800828674	-0.580843591860444	1
0.8388246856146451	-2.04334046608948	-1.6460381032701594	1
-1.7004772538381474	0.5451671557058078	-0.4160029015071057	-1
2.3473425865270503	-0.8727370553317448	1.4028653078700337	-1
-0.18442170276748474	-3.4631374946588043	-0.39041231368746065	1
0.27290748623884525	0.5500097563615935	0.24881551315786546	-1
0.6543384690542773	1.8546491851317108	-0.015073675358532768	1
1.5066314927115765	-0.6854621268950439	0.4351709591119273	-1
-0.20414714033169679	-2.5549289593588083	-0.5357092376016669	1
0.3383613635323206	0.20895854279952528	0.5064670657279926	1
0.5036583346623199	-0.254333687435701	0.10417592995314398	1
-0.8632306815054147	2.760641409730348	-0.9477193898945123	1
0.3251173094082577	-1.8213261889274202	1.5533021428129574	1
-2.011393358921535	0.07790917707105377	-0.038621146830229484	-1
0.5649086177533004	-2.299567484083386	0.6348143020090591	1
1.9441804048748423	-0.059641742512074936	-1.2628073689787231	-1
2.9786241860552827	-0.9680840411697444	-0.2965839726007708	-1
-0.8142552355767615	1.5384568899523732	-0.12634915447969744	1
-0.892452170877975	-2.488252823102968	0.15006043682804848	1
-0.09572932539193633	-2.0488425348286663	-0.05944819996190501	1
-0.5908634039417526	1.9292908909363793	0.5883315230808295	1
-0.20276228265895857	-2.2084739731685104	0.4094848115136645	1
0.3555804151963515	-2.6075792199472914	0.8762083612733552	1
0.5745429093334281	-1.6040936871805915	2.002721694455685	1
0.08044646938357196	0.8354833558278977	-0.3188251352771511	-1
-0.6109539103853341	-1.6000354539798716	0.19210650968853316	1
0.4178854987314565	-2.1953154563301616	0.28126517537585	1
-2.103993731457822	-0.2104357823689536	-0.37437315736804505	-1
0.6849557721952212	-2.9451104308233926	0.23565577833389836	1
0.2496375419075148	-1.676311511895717	0.46215882288864346	1
0.9069130041571145	-3.0371450692199184	-0.8338608208458587	1
0.39937539477486467	0.14900448273674935	-0.18011197722483965	1
0.4453767032746305	-3.3114581070598224	-0.13944032281267912	1
2.271000974346264	0.9016393392682134	0.46691533872268476	-1
-0.6650984885760106	2.511082412194098	-0.040632408221401406	1
-1.7260787709025658	0.5055651270872156	-1.317049214058806	-1
2.0532114005584803	0.08818082709712174	-0.3627315038493201	-1
2.48127512538571	1.2407028512416147	-0.4673864257327342	-1
1.8964140844211475	0.3053219580851584	-0.5055049855914014	-1
0.8334789842690702	-1.1839209403154944	1.0255524375553131	1
-1.535722081681391	0.19736322131742934	0.14231129335661521	-1
-1.453998619560719	0.2546345485338028	-0.9464882366357428	-1
0.9288717851419008	-1.5788763242855999	0.5264146312243977	1
-2.2546562960476133	-0.09710162010281703	0.19559668113094986	-1
1.1093688786747236	-0.3580992194477195	-1.2036216947633291	-1
1.4794978128989185	-0.6603932982338664	0.8259067029667699	-1
-0.3697250263963889	-1.8442965842690875	1.2237470272753261	1
-1.3585321741967156	0.8212375874511738	-1.5770092015751624	-1
-1.5117120088756644	-0.3187202243708449	1.1708153094392277	-1
0.2378512480947828	0.6389158368602482	0.39449413672015715	-1
-1.8606003039466217	-1.0485586883657732	1.341295599708555	-1
-1.8518147481722953	0.007877045678838698	-0.7385378859157554	-1
-0.09528546801811731	-0.5368260677529411	-0.324880439267308	-1
-1.2128750726806672	0.41162385194729734	0.7881658550827977	-1
-0.12390961878949243	0.3144770614287182	-0.3399602969185477	-1
0.09451641295542416	1.87306862753532	0.9103525498885088	1
-0.5908310222748369	-0.11164983323569905	0.2816440706369358	1
-2.68250848761153	-0.47572166395497223	0.9480810134486664	-1
0.25243487078954713	-1.2721627425372453	-0.7428745531486154	1
-2.9754111771469236	-0.9847337358716098	-0.7096197836409638	-1
2.7704885600059286	-0.19872489633677873	0.21011570960206566	-1
-2.044543105508383	-0.047327062246871526	1.1205419532058165	-1
0.5542501550960746	0.29890220261119815	-0.17024956743954187	1
-0.0033477340297447264	-2.3201433505037334	1.2396902006437056	1
0.015112373863520642	0.6185549241283028	0.11244930431164682	-1
0.4784677343710499	2.1524710700157144	0.10745240994106303	1
-2.2567089187394824	-0.9489633958676372	-0.20709395902675573	-1
0.5603885242883886	0.046459617064090616	-0.20712299796422654	1
0.18815238984579188	-0.4332324005451499	0.19789299994818033	-1
-0.2501077047918379	-0.6346011910909825	-0.011427328935066412	-1
-0.6306571758022531	2.7567494799401824	0.34749035857865285	1
0.03943568312217023	-0.28075512023864696	0.16173408615752383	-1
-0.3270014297378867	-1.461557989467706	-0.3998878410327356	1
0.71468040171121	1.1148187513465242	-1.0526779343211117	1
0.45262292679967264	-2.2004803925258423	-1.4494807671472494	1
-0.2681382357560127	-1.8809121915257059	-2.610700724057696	1
-0.03448832151692518	-1.807519358425013	-0.2575688024176194	1
-0.8301666339051677	2.511452257711483	0.3822132672643421	1
1.8002020139846282	0.08059024773501364	0.4798876075049968	-1
-0.7656254612010476	0.24616650871699292	0.10123550033739431	1
2.3402090742364723	-0.14602136769391116	0.9233652489382758	-1
0.39444790054044	1.5578199810362972	0.3446193490729579	1
1.7761543566923859	0.30805938756255097	1.1382743916645859	-1
-0.5414567631874259	0.12264544875740238	0.6497421673722328	1
-1.8274398995322003	1.2869900016135727	-0.9218455615147167	-1
2.366101930516853	-0.0385861203714576	-1.1452370109222725	-1
-0.010398308391593487	-1.9226117237731548	0.7143602711617824	1
-0.6848642113185446	-0.3461550881227273	-0.16859825855031257	1
-3.3017707231798314	-0.9075985182144193	0.13930664476070873	-1
0.31449970240879477	0.842071024743299	-0.2681335527256144	-1
0.050190182149982276	0.39096920437357197	-0.09934396818964457	-1
-2.2017733988461905	0.09020811078777641	0.6762884632489792	-1
-2.5826921443485302	0.7416682999282311	-1.0823468247950245	-1
0.09639230690622519	-1.837156494068351	-0.2854429926401451	1
-1.4267449985597656	0.6486416668651299	-0.5860847812315669	-1
-1.8140439672021982	0.05052296183921945	-0.7692138541783518	-1
-0.9053762441700599	-0.5280313951113234	-1.3667845751228163	-1
-1.7205644734083656	-0.03408159944701233	0.6981783801428694	-1
0.41698024036177594	-0.02967179283013298	0.360111280080726	1
0.32522383732125104	-1.6539290356988632	1.2374751335410508	1
-0.165944038527191	2.5188693135163023	0.7209805630340095	1
2.6861719614315422	0.7959548421088019	1.4139783472886613	-1
-2.1228161765729436	-0.008517943364878766	-1.0331378751661424	-1
0.058040312167131486	1.112940300635585	-0.9479749684607109	1
-0.301354761371667	-1.6999410752895479	0.8628546696260498	1
0.1162548543638019	2.7044537091648886	0.08467230777075795	1
1.9246151274584102	-0.3869092779578311	-1.0770234505621683	-1
-0.74891328473821	3.744052216286094	0.5001676585404512	1
-0.5079100247901569	-1.9396375675593518	-1.6137085148172137	1
0.6283706502699927	0.2619094549513144	0.1551205519115809	1
-2.4009829954874786	-1.3574869864748054	0.45014740616991233	-1
2.596981423933081	-0.383976251779122	0.4857050710035479	-1
1.5028105786992276	0.011016999304224647	-0.020035092476845942	-1
0.19192034745904077	-1.4558676063877134	-0.8695011432343898	1
-0.6026196266420809	1.0705341731857003	1.4580880923591475	1
1.907761552564117	-2.5459859607655213	-0.07729346662167996	1
-0.02262761492614847	0.6724381825816254	-0.2238240415874703	-1
-1.7382584587011807	0.26542033308190216	0.8466942281334863	-1
-2.8810335790797854	0.6913763857555401	0.5542849064969033	-1
2.472690928252769	0.7794657952144067	-0.4730776101491547	-1
-0.3735954744389948	1.8148315051241266	0.11517708994634508	1
-1.9942583172474646	0.5929145560523764	0.8077994100822935	-1
-0.1378188680716703	0.680897505999963	-0.16785189706324866	-1
-0.40839234754698844	0.04697185297051475	0.1368461962803477	1
-0.38025746076435996	-1.942840535376426	0.29963730902149	1
0.1652818327978083	-1.5630333127896232	-0.21857248996530831	1
-0.14814951820063507	-2.599999738948534	0.7214671209716609	1
-1.1189134089722612	0.33323925107645613	-2.0283055438834823	-1
-0.019653283126144484	1.2820923179425288	1.4085868609057721	1
0.009013217487023209	-2.741713491508616	-0.6449326571859261	1
0.26542957362870095	2.5781118688780964	-0.11379617880402133	1
0.2759144932749958	-1.8754178134403379	1.0461273030990823	1
-2.0853653708727915	0.6427996330150192	-1.60937328536132	-1
0.5478560406921846	0.33069353734292756	-0.051220412973832896	1
1.4047320396128378	0.2220587494709516	-0.6836570663045359	-1
-0.5033390727899201	-0.010782063769098994	0.12583407808919647	1
2.144664377705064	-0.03836509037989991	0.1415009187851193	-1
0.37167470043488793	2.1153844873224146	-2.4361525228298895	1
1.8574120763379591	0.45082174169824063	1.3021829433226102	-1
-0.6605870459788501	-1.3654498340265093	-0.45213630301931707	1
-0.02810463563613316	1.8301139444892602	-0.16559487244481824	1
-1.7724269501269998	1.1356277121321268	-0.030540932505031333	-1
0.38841098500604315	-2.4074469618116376	-1.244839654410732	1
-2.122998352112028	-1.0899439046742243	0.752690714754322	-1
-0.23086406939879353	1.7404754255263193	0.9732086218944462	1
-3.0711519980723736	1.309514420005531	0.9352722127196197	-1
0.4896850324802575	-2.092206335871265	-0.004415133066470983	1
0.6501518278392749	-0.10780272511993888	-0.03420846292767938	1
2.213410988460494	-0.21476534797499724	-0.2704849695607486	-1
-0.999855413849708	2.0439595933925867	-1.1745473796051482	1
-1.5214233252453593	-0.19902501028032507	-0.3964162445451447	-1
0.7799453546526443	-2.45473640867786	-0.6136110015207952	1
0.09563547389126092	2.7910294590503266	-0.24412020710525362	1
0.38962972248312705	-2.0353505292438148	-0.7659658821617445	1
-0.03515439604802991	2.0285330061174447	0.9643543772110438	1
0.8449691011028437	-1.4387664682692074	-0.7095537826831775	1
1.3715819935367133	-2.3839972989703213	-0.9204573310647586	1
0.2385894048335171	2.148557254172926	0.9767674674493585	1
0.5901844594356115	-1.126236736158531	-0.9910524010363121	1
-1.3508794464364446	0.11904212769924157	1.4064043281119876	-1
0.2970832282312055	-0.699780733248879	-0.17052862662547652	-1
1.3941986874935755	-0.05452196821553451	0.2890999235661584	-1
2.133477355891926	-0.8191361082450895	0.49883478464200703	-1
-2.1156433264754817	2.6667405501725696	1.576248796161919	1
-1.8344635659743085	-0.18910712156207599	1.582457048070431	-1
-0.5242999402962386	-0.052005401459481515	-0.2476075365903587	1
0.7484080511047813	1.4788305492202134	0.7014932945364946	1
-1.9358186384683027	-0.27931085571226205	0.9773725038147574	-1
-2.6494864165249545	1.3860546274227896	1.5058506323479681	-1
-2.559072314899044	-0.6567643280161746	1.3250272197350403	-1
0.0690690714131449	-0.7035119859026565	0.1295092302820979	-1
-1.2406525899536538	0.20759942871766546	-1.3369606665157168	-1
-1.4743379643334142	0.34820648199831994	0.631760848518693	-1
-0.03437743181830483	-2.379896078672417	0.7009669041726617	1
-0.12473002995464666	1.3773512494855946	0.5777127215079652	1
0.5401837767755516	1.9424577282256088	1.9286506251930964	1
-1.890536205038937	0.9911990473982183	-0.49434343948679316	-1
0.6787063750620279	-1.470404763399457	0.05437957943172899	1
-1.0547013006209969	1.9256824440118276	-0.17169153156711967	1
-1.8071295372924336	0.17630763754805295	2.0552476987417414	-1
0.08822805763553769	-2.303334571740592	0.146620595853508	1
1.3549530033783515	-0.4598159212863718	0.7612458813116454	-1
1.0301994328112776	-2.648227617076539	0.4604339615384581	1
1.533089460118808	2.3864947868767854	0.48732019492602724	1
2.871687931863544	0.1330787184843876	-1.4355422678068486	-1
0.1266502196685165	1.7012058739918663	-1.3016477340083898	1
-0.04341944115452933	1.9961598450626057	0.24695975543587992	1
-1.4895011360072146	-0.22667389702719354	-1.172373044163886	-1
-1.7234890623375614	-0.07977907094930234	-0.8462946987960319	-1
-1.516164541711619	0.18433143867484633	1.598947337061691	-1
0.4802689797053072	-0.06547762838397132	0.21527469221078888	1
0.5656024702357388	2.1085618448289116	0.41384356908402387	1
-1.7371122882426677	0.33692208432031606	-0.07349579478063016	-1
2.2445951591976967	-0.5602272716659046	0.592184967949012	-1
-1.5570111368596045	0.38711745140288145	-0.1311669250525823	-1
1.138955483189918	0.2220272352443129	-1.1878133234009993	-1
2.9351395033995074	-0.4298371862196526	0.7179242472930847	-1
-0.3818296130333798	0.1173120090035122	-0.2196823359049422	1
-2.0014786871151586	0.029060376905023107	0.5187242717954346	-1
2.2475602298848973	0.3205023464941412	-0.8966614393550034	-1
2.0913879555465824	0.6884007767010992	-0.13436073190719539	-1
0.5276148753737836	-0.33110969857329275	0.4551993398386154	1
2.008378490377929	0.0688996617975142	0.1445056283087614	-1
0.5212623865132867	1.9266775927782558	1.0884540341010744	1
1.9348302777056816	-0.08319083081742024	0.5259642626788866	-1
0.7192501848320921	0.1992677644009673	0.025717516054838616	1
-1.6683336860843654	1.0380762865570687	0.37817074784573906	-1
2.040407350952386	-0.5658007093748539	0.45900709883919194	-1
-2.2789137936013115	0.5200979661010746	-0.5690598721545624	-1
-0.1879538137154254	2.3876287239539664	0.04204535336050752	1
2.5102220452543182	-0.03318653610629768	0.13340503886319247	-1
-0.12932163161218546	0.6225065676070963	0.15099365828076228	-1
2.1183870146082966	-0.6950467721237025	0.4394386754281901	-1
-0.5884150571067654	-2.961067741303831	-0.21100906364065866	1
0.8686543699895743	-0.03124717389462768	-0.5317529528509576	1
-2.1178148732442255	-0.9998273059874784	0.012841423375144129	-1
-0.033157570807180244	-2.2975234388828	-0.8293770129382237	1
0.007397443930120449	-1.4750581968185532	2.033261563374285	1
2.3176169612052813	-0.964741567286319	0.3318403053942838	-1
0.2818112068383444	2.033360111501184	-0.31879798465810333	1
0.5592050164938168	3.406643532499272	1.2034576664612262	1
1.7154751343762378	0.09978545067700545	0.8405100435921731	-1
-1.6814210297500638	-0.5086393539185584	1.2545833492792287	-1
-0.2888530909688898	0.6074682050604252	-0.09289824502992645	-1
-0.9890403765732751	2.0958445719023873	-0.8390393325247429	1
-0.3878540800205529	1.315863222029607	0.8517267338272257	1
-0.2722804156549263	2.117330008576856	0.3909882073250396	1
2.2100289071098778	0.740167327478279	1.209462226348955	-1
0.3148731416171834	-2.3852995578223424	0.4408892473150219	1
-2.635069145077752	-0.3892960419259538	-0.10286074965176346	-1
0.40084063449702284	-1.7437928818488517	-0.2124894087779421	1
1.6836601033665382	1.1047466841459956	1.0829471042520509	-1
-0.02981056442305251	1.9480091134869337	-1.0213649800272222	1
0.23777553716543706	2.979688697211558	-0.6390320102863898	1
2.0289314656632897	0.46393662909091316	-1.0446998021345617	-1
0.7855041297531414	0.2699025582916709	0.4657359171673968	1
0.5829623985506163	-2.111777304772014	-1.3133809936877312	1
2.4045849995239985	0.27133839916448527	0.8000149030662475	-1
0.4743302130454845	1.8894808521005613	-0.40745857674346153	1
-2.207147145094227	-0.07550096118802803	-0.589239284820788	-1
0.24964455993508086	0.7714185649890953	-0.24878183495767342	-1
0.7387153826371705	-0.16071269548056014	-0.27301455485465487	1
-0.8207647194434697	-1.8278885583214473	1.8320475658993853	1
-0.07679764633056385	1.6224008178728813	0.85582080991855	1
0.46967540879287495	2.0244271321286846	1.7792665156500342	1
-0.647946467816428	-2.1027365312451676	-1.287296701740813	1
1.5064168564364104	0.5506525648602615	-0.10228183206616817	-1
1.600684059628668	-0.21861632162113961	0.4020669556573454	-1
-0.7466877884645924	-1.8445361242614529	-0.009701249029968587	1
-1.7437664599251972	-0.9140439671756039	1.7048171558221874	-1
2.5617632971153537	-0.5372535580703954	1.020681455356486	-1
-2.062182538512821	1.3256240433407447	1.7245003884106418	-1
2.645047393675906	-0.013022588685734674	-0.01143804888466316	-1
0.18943362388949472	-1.8259441286063458	-2.203541323679653	1
0.8414373625400007	-2.506039014491769	0.3438198434325542	1
1.718079336314868	0.314795553562701	1.5349517806777426	-1
0.612622796670563	-2.2202788197784242	-1.1667487885966812	1
-0.1486132620048872	2.592115720823294	-0.38373638798784765	1
2.2636490267771143	0.12506172905889765	-0.09215783557302566	-1
0.3197323956351612	1.9235930879721448	-1.2872898910454387	1
1.871554524283061	-2.485879529706277	0.04851039952645294	1
-2.139062713400809	0.6926012178856031	-0.29070379708843264	-1
0.17444546747723744	-0.08799165891200506	-0.10387327724565627	1
1.3944507108392026	-0.45666907185255856	-0.21416153010898875	-1
-0.017795391402919525	0.5547598083071277	0.4268757188179351	-1
0.45706136827274285	-0.0355211856337506	0.12175907519955978	1
-0.524438517089673	-1.4375742583276097	-1.3296054072606553	1
0.14056050372878698	1.7997402922432244	-0.6130066966277765	1
-2.027422891596109	-0.822586370141308	1.0147180933517128	-1
-0.5304932383802836	1.9550895541659277	0.732122983996125	1
1.9263340160113138	-0.0022845433953580323	0.5144198525076737	-1
0.003960175572382007	0.3891744645714171	-0.1862847707127321	-1
1.354038216193107	-1.9882424128707443	1.391397518994428	1
0.2706500971980623	2.231454775171805	1.0000973526767314	1
1.5152815993365394	2.855467425901418	0.07592199446674179	1
0.21308098356870256	1.8540490225824222	0.19751437814459286	1
0.44343997925779227	2.046606302016062	0.5658439455128961	1
0.07601414928551717	3.276803675981603	-0.36939708275906297	1
1.6441834136913955	-0.20149304899242446	0.40119495226925955	-1
0.05277170097677955	-1.7535610985110743	-0.3146986402131939	1
-0.12239222428712349	2.257771917808425	-0.4810544787164098	1
-4.004241733137492	-0.7517098031921615	0.8670336587810541	-1
2.687376194241695	-1.2834722125880305	-0.0058616380624434035	-1
1.3008436182590735	-0.686571711569561	1.3209793548873294	-1
0.29433918831669775	2.3640715583234457	-0.9334461622896639	1
-0.5351156897974024	0.24722435093927572	-0.04901318818654979	1
-2.2249201820606213	-0.5615726710734087	0.23291174189293923	-1
0.17034300114143353	-0.7152564920791207	0.3774938022347256	-1
1.0585034807223896	2.6468368242492155	-0.821834896559148	1
-0.43461586630155147	0.06462746580199218	-0.19203347035453744	1
-1.7786612519984417	-0.2604321794112675	2.0582407470718596	-1
2.0358669491623935	-0.6120901313286684	0.9920149121634169	-1
2.136044219920091	0.026840316868088878	0.33261709667786277	-1
0.15679911415448602	-0.30806757818226344	-0.6647511270197318	-1
0.30600252845882164	1.6410271859791008	0.3227594253334021	1
1.3307608802871362	2.597504764293264	-0.3383013717453125	1
-3.344745360908025	0.8867488902797214	0.18479217175733137	-1
2.70486321873823	-0.024218431144244847	-0.8039706544584849	-1
2.1019418083655528	0.7477524979701893	-1.1292071604483698	-1
-0.6360681805120884	2.1077194232697374	0.28708552116990715	1
-0.7931055727642176	-1.7297463377793194	-0.07677840971599324	1
-0.05354948443872653	0.5153907260150483	0.009209776887468645	-1
-2.2910112104291005	-0.7810802387012613	0.6361705490108497	-1
0.5958035467685091	-0.17755513395430755	0.07748564019622031	1
-1.0345344397846281	-0.15481713491908244	-0.16155493006034183	1
0.8091864646751281	0.07198616362907155	0.4478979082508204	1
-0.3574776149266883	3.27970027989911	1.326881985385965	1
-1.000129666701775	-2.1094477939646734	-2.1404472575913145	1
-1.4990489673848835	0.0809418431398179	-0.17019936426481586	-1
-1.8492217754876572	0.2700198896211034	0.14099182235249483	-1
-0.9671918337354004	-2.720191159332813	-0.1791323474744549	1
-1.5324864996939853	-0.1219900879739348	0.039532507936625064	-1
0.1518516342360043	-1.8101044679869938	0.7146744221966883	1
1.866126608631393	0.6216896865624598	-0.19436901926022898	-1
0.6224445496699104	-3.082478906616522	-0.038717250293747216	1
-0.8951222102729286	3.450768677873113	-0.14359927788128382	1
1.3977059317500558	-2.2105317497955403	0.5415800317534728	1
2.1147483407046956	0.5415106117827017	-0.33487635175813724	-1
0.7182049547202727	-0.23504363320053046	0.19807419655565417	1
1.405189958288717	-2.078891198520705	-0.2776302105099262	1
-0.7636399698553031	1.4353403306546335	-1.4571058241686945	1
-0.10928745479857145	3.148330737195938	-0.5957254048497831	1
0.8252881531922736	-0.07006942270371588	-0.27388299979882696	1
0.45857740782212847	-0.6647462108828606	0.41200993675833253	-1
1.5044802125112817	0.3882459880080312	-1.4498779007315683	-1
-0.5805056710373827	1.9864626140268613	-0.7215944493245695	1
-0.056290411522392406	2.4104298082981037	1.3845082661125367	1
-0.6906723568330452	2.51962149243729	-0.19959003240036313	1
3.219523169372351	-0.13250002780540912	-2.2761424451356898	-1
-2.0474824386744346	-0.2723048388063443	-1.226524788390108	-1
-2.3994084295019227	0.6728467578140984	0.7068177545194296	-1
-0.49122866867716014	-0.18571055026259267	0.270313582600347	1
1.9408256975749538	0.44887495939661726	0.11733827529961482	-1
0.19478701202783505	-1.7576521699970102	0.9229492156539257	1
-0.4624330043035511	2.657524626163404	-1.5400930562695954	1
0.22971524895274623	-1.8092830271793396	1.016061814035402	1
0.5017790025587222	0.06526112534271672	0.015334442629318268	1
-1.8561511644666764	-0.016610906468366545	0.6413795460373645	-1
0.5577364985698084	1.7182710135560537	-0.5044427237993924	1
1.9038421176602842	-0.8272883040170778	-0.008032949618960608	-1
-0.32103752677977393	-2.9307343405054707	-0.32036068700233705	1
0.15145447879605312	1.6332085197907102	0.3795061129037392	1
-1.1647694126470378	-3.3712751244646606	-1.2656519576048906	1
-1.050481896903199	2.7316725173843324	0.5654629137546402	1
-1.629325336633285	-2.2754459509039484	0.13541369606306156	1
-1.4498543388977245	0.9320407463978031	0.7165727598836125	-1
-2.398949803665759	0.1250746228948437	0.0038699450703754655	-1
-0.35318448309564615	2.8525675618311555	0.7209320321218886	1
-0.5486889175143906	1.7731656123181398	-0.5820134231128222	1
1.7567700624758793	-0.40910562507001447	1.0346053624800842	-1
-2.076638583403767	0.5856640264605117	1.2806038341207628	-1
-0.4509921817189473	2.076773812980842	0.8780362552420308	1
-1.612996778577008	-0.4211763651120688	-1.1170355038733628	-1
-3.009522357501463	-0.672502860291036	0.5661502344119611	-1
2.2248751129509943	0.5063347719372694	-1.2116667259882454	-1
1.7683255592200258	-0.9877979246730568	0.3048711503859146	-1
1.1763772038723326	2.27214322426696	-0.6084453115890616	1
0.33618524023649565	3.355621504014261	0.3539438223522098	1
-2.126368674820861	0.6820376732148354	0.3639410336140989	-1
-2.724236975963133	-0.2315263058736493	1.0449824217521855	-1
2.1565651147614786	0.8599740067596122	0.008854242541575911	-1
-0.1619936772998233	-0.45032308472193183	-0.20495508007920976	-1
-0.31904443347889366	-2.2707334631093454	-0.09225347059531258	1
0.451242091906231	2.088612587562406	-0.4308865968501698	1
-0.42286134607210973	1.841582760804482	-1.9022863379742685	1
2.682422196449072	-1.4193736245117279	-0.03571146349802882	-1
-0.5140196542019989	-2.11083012938975	-0.3853935724381636	1
-0.7622552192322343	-2.207578690587001	-0.5994776859895956	1
-0.008434327779641558	-1.9976123762355222	0.8366811377325232	1
0.8590280597601126	2.739014522983514	1.29468805405769	1
3.218708663939015	0.018464029902110768	0.6735800801562403	-1
1.3350301227548462	0.18192110480625967	-1.158341923362543	-1
1.275209584881264	-2.7082230792636084	0.7324485995297579	1
-0.15090822679390548	1.910458173525745	0.19796075569613056	1
2.02808159494147	-0.4301741895711028	-0.3785987891905418	-1
-0.1975488526790229	2.5971788782589016	0.596931278576507	1
-0.3180224035808198	-1.7098862275663813	-1.0333828264588407	1
-0.7819232370017921	-2.7008587190868285	0.20198810647523185	1
0.8699240892094933	-0.0037490238356095683	0.29191856561427176	1
-0.567359331635398	0.16876112444312535	-0.06277715954545615	1
0.6388136277075075	-1.4570824626833714	2.411784656964466	1
0.9617623067363041	2.0022428323490473	0.2564049087635662	1
-0.5363970247443682	2.318713780451702	-0.36774871008416987	1
0.011579304698058039	-1.8465337032712599	0.7581402299817971	1
0.5026809291089912	-1.552377806647332	0.35891649897283895	1
0.778491000674674	-2.6216516147136737	0.20007888073804342	1
0.3457999345276501	-2.104647239922589	-0.5269613073838443	1
2.2772201429580967	-0.5956915421067123	-0.09711223128077778	-1
-2.6259667867694354	-0.9520032054224873	-0.8041377799246959	-1
0.9886835248753058	-2.0076346193689214	0.5049561932535064	1
1.9700477002849532	0.38422183940885224	-0.9907340587936724	-1
-0.7853213406863153	2.562267887548625	1.203147554713067	1
-0.028974462017631826	-1.7882197982114907	-0.5648162762643087	1
-0.04176370137455002	-2.992132844122663	-0.5849923506489659	1
0.8840146321837393	-0.24632290422969016	0.2634290694133635	1
2.468391969585126	0.5150567238471963	0.859132267457659	-1
0.6338605349522403	2.3300042595188786	-0.5260995547176394	1
2.084018510968869	0.9889945499904936	0.003920101374343935	-1
1.4481995838563977	0.13472650476947448	1.5252462836021838	-1
-0.8236861866386621	-2.6083563683873647	0.3709730477260523	1
-0.8404413605879939	2.3796632673359244	0.46625799310211047	1
-1.5278574468517507	-0.7074405281047679	-0.6920237144793437	-1
0.09808797326887457	-0.5931142771076646	0.37744982423931267	-1
-1.764441718558677	-0.5463012208046506	1.0405454584450802	-1
-0.39924625208892345	-0.04856131746293557	0.0877247503140114	1
0.0025100001047210843	1.030226083461289	2.080639412705709	1
0.2300388387606335	1.045335269308906	-1.6914062184904601	1
-1.9162808643725715	0.002253207270825995	0.1686862073675784	-1
-0.4173153432331274	-0.18010161266813968	0.0697467453033405	1
-1.0429850246715624	0.09041363094947463	0.30769694404063597	1
0.08415246346886414	2.1439290716982415	-1.3849131871440428	1
1.3837495678895932	0.026959999747585447	0.5449538935762909	-1
0.266175201954272	-0.710813658239728	0.12495433197366518	-1
-0.2529210283895977	0.4567214095388861	0.25252083496025013	-1
1.1079502512701762	-2.272196046567173	-0.9213102486058354	1
-0.5910604382998298	0.5120097908425602	0.3237071002903698	1
0.2642857949670264	-1.7653019645114894	0.18920688788457346	1
2.259539774042556	0.2550051881604462	1.0866999063249214	-1
2.207374428203019	0.5396518280854259	0.13835367496348489	-1
0.2821886823654611	-1.4853220353246217	0.22429277853338947	1
-0.2451985655348164	1.3457491213151147	1.5839724377050903	1
-0.25398220446395586	-3.5225434769465176	-0.6401536291103262	1
1.822742468704809	-0.16493413537344245	-0.5195826016612534	-1
1.872105615723176	0.5495032015453316	0.19583938795663167	-1
1.6892152069043722	0.1429429342031072	0.47404986881675076	-1
3.157735740928622	0.20245436417841323	0.12751858666492696	-1
-2.2277408707327178	-0.45980352296855553	-0.8218994982345262	-1
0.509621307291442	-1.4786277175835654	-0.4638057675472787	1
-2.5670777417045345	1.2918033507298954	2.2150369126947895	-1
0.13261845147374854	0.4964674166148692	0.2657278034710021	-1
0.2513912685001568	0.4922788498488852	-0.1327355947280017	-1
2.88691672616941	0.904676124868305	1.3622038502612819	-1
0.16970588775924703	-0.5652613925181305	0.26082597786880496	-1
-0.8739741454261751	-1.9117804995062373	-0.3185087536508046	1
-0.18727816492449637	-1.1790018555070965	-2.0194536531255847	1
-0.28577775300273395	2.61976672815376	-0.45844104682203923	1
0.7813484449366066	-1.426442013663852	-0.013374675443854548	1
1.0084065388122871	1.4102825646614758	-0.19445460424821456	1
0.17666913164402312	-1.7432973871267075	-0.8680144701716257	1
-0.7451844854936467	-0.35687025286397334	0.15195154601780925	1
0.18181543184936866	-0.6138027442005449	-0.42529942943021065	-1
2.8422002242100546	-0.867599419612697	-1.0123071387093079	-1
0.681725142079276	1.9131137581984619	-0.00010397850288978411	1
-2.0446348153911376	-0.5439186271321595	1.7577614064377496	-1
-1.7923067421292975	0.08861884041502323	-0.9452292253484716	-1
0.6270449075023425	1.9133219661701284	1.4895322449047181	1
-2.297211936242997	-0.05893593024872319	0.3629451899845733	-1
-0.1657354043036679	-0.49514959700399297	-0.08471392979326585	-1
1.7277141070742816	0.8892165539598266	-0.8392572631401474	-1
-1.306885247172422	0.5093544740615605	0.594506680107264	-1
0.5386014621444408	1.5215451491792484	-1.1380174750532228	1
0.18456314226099726	2.019018529276305	0.41376633870781676	1
0.1629447991226168	2.6215071159504584	1.021044168824688	1
0.2382512896337764	-1.958049691245445	1.0620839903343193	1
-2.4482744967292183	0.5357911290803166	-0.5358671607840914	-1
0.16661592765669375	2.852156844040305	2.6295621759132004	1
-0.01632549746812224	1.4444154219891099	1.9831900360228816	1
2.2099082862881	-1.0938916573261732	-0.966310324966573	-1
0.42192294526290897	-1.952416400438277	0.7405039496550102	1
-2.3355853828228295	-1.3943502578805864	1.3060736098191825	-1
0.8663133257869348	1.8045427654328248	0.45713312689265984	1
-0.23486021956150369	-0.6814095933688304	-0.04197754596566241	-1
0.651431339005392	2.5730486833417285	-0.7896502919238332	1
-0.44489410005804464	1.7982078459884665	0.6889848447485604	1
0.8192999410200548	-2.0399380907937252	0.33886009749104773	1
-0.10432328855052045	2.3269134856106075	0.6049435536814086	1
2.130116872033433	-0.8837472423675892	0.17050770432148923	-1
2.553311852859407	0.6632395691050855	-0.03570923281749782	-1
0.4057056803721105	1.072429374889325	-0.9437563471483608	1
-0.1120521084876352	0.9330537215976813	-0.04897398555871321	-1
0.7890494805857567	-2.5182414953195837	0.5386619091056155	1
-0.8894134174170474	0.1279733237960011	-0.12328806574929296	1
0.6360605108632909	-1.8609836723832807	0.3024150116009809	1
-0.10894028726242366	-0.7657633150659264	-0.13658266027423313	-1
-1.5768709895760962	-1.0059204979907734	-0.9670138963935937	-1
-0.19303798547810885	3.0534869039478165	-0.5288534652667194	1
0.2645520941342938	1.6916101036391655	-1.0120215682080909	1
1.3368270731778011	-2.145094230772087	0.13241286814198341	1
0.0556781931953791	-2.3457223632149815	0.7426881760591744	1
0.22820222861161424	1.6433187274692	0.9952121365732298	1
2.410799572859846	0.3347471795836585	0.32268576604080845	-1
1.2441091720502657	-3.43349174875087	0.9627047462770251	1
1.4700284099035237	-0.8450719296670224	0.7066493178209683	-1
-2.492243985084908	-0.466622834101314	-1.3996396001472076	-1
-0.21847105351766516	1.6144109689989088	-0.5317718761773157	1
0.33303482006718405	-2.2206802247085196	1.7263631994835191	1
0.057932423490142576	1.535183277411477	2.099913416818705	1
0.06722245725798125	-0.9874116311993459	-0.36297822193101814	-1
2.856294795511898	-0.20325811192094992	-1.288782242279727	-1
2.349734943668315	1.515613540163836	-0.2995117689479977	-1
-1.3676772254248315	0.08498011202395594	-0.6694820908002115	-1
2.0165165420811983	-0.31447931304610593	-0.7331770241216543	-1
0.6942895957276266	-2.7475613807300348	0.24850899014539485	1
0.04234794587864901	0.532826997601087	0.17733988012466095	-1
-1.7849481132686744	-0.9072639927399164	-0.3410996938244397	-1
0.4206126181584853	-1.9387377402147488	-0.15138818869013718	1
0.1324852015463468	0.7577502063494282	-0.1919052589888861	-1
-0.36204465948876297	0.17396964158487205	0.2661530581692721	1
-0.4368170650181016	1.9184514654112796	0.2414763626287027	1
2.717683093079877	0.8542909412700772	-0.3659581088347418	-1
-1.8495289185667247	-0.29263435641448	-1.192928743899653	-1
1.9031381830825862	0.4101855161483829	0.06316274329974957	-1
0.3731546861697962	-2.6794046488467695	-0.6971986199350395	1
-0.43296850411999754	-3.1850857075441255	1.0806455883037065	1
-1.158448498061233	-2.5855790816685964	-0.7908961928507723	1
1.8093010852880225	-0.05618952551562503	0.18922120726392985	-1
-0.43060082226161606	-2.4787845895314837	-0.2546173791188227	1
2.504317761603423	-0.4595141641957228	-1.0688398616777388	-1
-2.2391627962713505	-0.891895099480001	0.041790380748064654	-1
0.19809071783750576	-2.8158142919885902	0.574914075862884	1
-2.407739021946235	-0.413688166904087	-0.9897546080927301	-1
-0.006011111677231937	2.1778247457733646	-0.13831840298859163	1
-0.3730515538058344	-1.6704873810915999	0.25567368436943205	1
-1.5049424592440928	-0.11787342169298087	1.2427034719076002	-1
0.3213644807103083	-2.462271424681176	-0.844955815065824	1
0.9599799814551533	-2.573477498737052	-0.9267450113598953	1
-1.1964786278562185	2.3330046154368893	-0.9392315046687959	1
0.22797171241859182	-0.7394954493143701	0.17406602864469223	-1
-1.5160437900548815	-0.22124791934882393	-0.16784776580214902	-1
-0.38345729000402384	-1.5411691117326258	-0.17737619333200208	1
-0.1553847537649285	-3.5680839422547126	-0.7382738744553037	1
0.027776054823172608	1.4863280255393416	-0.47134723454356575	1
0.005445072707507409	-3.5187327314737082	0.27851405910010885	1
-0.615398823456431	0.13365248181715023	0.4199149984901753	1
-0.11625015359392124	1.0973102565726418	-0.3678818334449987	-1
-1.672028110336752	-0.5990292795628435	-1.0812923893754307	-1
-2.602100934904792	0.7387962590483433	0.5309246329842234	-1
-0.6375883568693217	1.0571146678712482	0.9848673891629565	1
-3.1062230953302183	0.07059948683500734	0.034688190456629436	-1
2.2035441644907903	0.8909023774278622	1.127041629148806	-1
1.8670326116104456	0.7608475165451202	-0.815950118323221	-1
0.9070858363478126	0.04466666379076417	-2.716410484330776	-1
-0.7098872083976077	-1.5386561993492511	-0.6068191424314602	1
-0.5653542103039576	2.6525848637458385	0.6859324381629901	1
1.081897830703994	2.05430962834363	-0.5211846222024852	1
1.9796848228975628	0.3811880350161152	-0.5282994226056443	-1
0.7644079912600418	-1.6656949556136575	-0.530370683143794	1
0.04917766391170317	1.0105607680977726	-0.280594938818163	-1
1.684194817542035	-0.34999733243114867	-0.2791155016683166	-1
1.1801531818602033	-2.0611533447069834	-0.08844886758598519	1
0.35002542075208876	-1.9139458731116616	1.2228947135470767	1
0.13340992709773594	-1.9293515862423085	-1.5120760485491087	1
0.11590930745971957	0.4975634842144283	-0.10544517889329603	-1
0.6433052314901581	1.5887660654381988	-1.5319798302094378	1
0.048772127328604725	1.3326610308146627	1.8937084777545827	1
-1.9095099971201366	-0.5841042777400406	-1.0399118699142806	-1
-0.3842192614948648	1.820327359424119	0.9469327431542484	1
1.5537445027427113	-0.028448757685474654	-0.20623681949112488	-1
1.8111664771156086	-0.40497133415706027	-0.8815799301854986	-1
-2.0598006070813337	0.1863053048485579	1.1088561004052229	-1
-0.6250956700262151	-2.288667149345941	-0.48888483069098343	1
-0.2901396645802446	0.6829451625078098	-0.1322902238033705	-1
-1.5391397459636806	2.0335691934427618	0.4760246753011515	1
-0.4615346222642335	-0.03774000107572573	-0.643997778436845	1
-2.5590031780116145	0.36257583720406733	1.0789516315007983	-1
-1.4705353217091837	0.5704749462454634	-0.1095625388345714	-1
1.780671934090323	-0.22745649024723236	-1.08213102239854	-1
0.13735882589040643	-1.5850895521690138	0.9034452156474337	1
-0.47777234935038265	-0.004142445663329309	-0.33480231860883175	1
-2.6429041503555513	0.7385388254236637	1.9899185455907014	-1
2.4562231017416676	0.40379452401638655	-0.0617987223218196	-1
-0.3572743498074331	-1.4163693381253148	-1.0956680145271642	1
0.2839308610379416	-0.49617625583972774	0.034052452067790194	-1
-1.5219792351309414	0.5036064232195195	1.0140205359533498	-1
-3.0576350823569896	-1.2809501376647119	1.5819135732550296	-1
-2.9500668218684885	0.019539570211379823	-1.1426930339788741	-1
-0.36437864269098136	-2.4044599016332433	0.2687277666407912	1
1.556156331917015	-0.9086803070612461	-0.6343502493395666	-1
0.5266814822438167	1.6286808155692747	0.5333683476777397	1
1.3814049902092413	0.2512659992365124	-1.2759614227953098	-1
-0.3178907758017812	2.0470286886987727	-0.2465562769197398	1
1.7613716352087199	0.2373493510151687	1.3581190519764528	-1
2.920770871125028	0.28054788059400776	1.2086152988826757	-1
-1.3631611031602335	-0.6006281657015045	0.003886197884184757	-1
0.5693881613842052	-1.0802553854341135	-1.5135473923962794	1
-0.7035594940578361	1.5551735844367718	-1.7763446107200533	1
0.13317348763110512	1.557232067127216	-1.475987692226815	1
0.04870560216687258	-0.7353304795229644	0.28976054517917377	-1
0.4682107085977145	-2.59021710712151	-0.09788409109077548	1
-1.1923313442327488	0.526249041418061	0.6285379166267355	-1
-0.10481077640366568	1.8481044107286075	1.0044391884342097	1
-0.492791411096094	0.053261526327153676	0.15872654312555684	1
1.1460989915373256	0.606605278698007	-0.7970543489075916	-1
-0.3047871043505144	0.06300853148682578	0.06168975838879701	1
0.3793899973601019	0.12115989014861764	0.1404475188039532	1
2.175827967615312	0.7858251824077006	0.3741238126610504	-1
-0.03926157538431592	1.915655469662848	1.0310064540130355	1
0.009442605462912012	0.7555441437169416	-0.07251482336792242	-1
-1.8266107141102474	-0.6526139804311429	0.26735456762357274	-1
-0.750042343088417	-2.166945654490067	-0.8084823734561243	1
0.3109598148058268	-1.8099784303436277	1.1903836116304152	1
0.16568735525885292	-1.5001887524020965	-0.7350199699728218	1
0.3782621028900867	1.4167146180051615	0.9868296185391849	1
-1.570176078450964	-0.6802735578983586	-0.48033064821518795	-1
2.9351365744144298	0.94563351503747	0.949740201811286	-1
0.43600095926170196	-1.4304413730979761	0.40030125866226857	1
0.636129665565155	-0.03999464264409168	0.03594959030561786	1
-0.4870389528269777	1.5042414810998577	-0.1156843672511956	1
-1.7438913003673215	-0.19193269143466013	1.5052131894382674	-1
0.8685736648724739	-1.3118453450731404	0.24078610058373165	1
0.23997930046522398	-2.11979916332708	0.5839938052915172	1
-0.7914750313130173	0.1146689438995505	0.3912827863802716	1
-1.9724188997052463	0.009601111108311465	-0.011243087814320896	-1
-0.9461990147547129	-0.013645240064221818	2.0621912682300714	-1
1.8928807446348608	-0.6171848972720545	0.3331209484595171	-1
-0.006941602871020043	-0.2630167596365866	0.09186831903041753	-1
1.530491478876362	2.3038618984186554	-0.8644967724031196	1
0.254194357822193	2.1772092285337865	-0.44264424775899597	1
-2.53593310976418	1.2080250417359484	-0.48919122369511286	-1
1.075377815147743	2.0265679224661817	1.4410267811076989	1
-0.15596921491999857	-2.647939544784519	0.594324669574495	1
-2.1976943043775625	0.26791355287963303	0.35653338621304353	-1
0.7727958632998008	1.7299927983716357	-0.2824908194822166	1
1.1234030024218669	2.275949440351521	-0.31917783541632083	1
-0.947169429283542	-0.6259381393811104	0.9695477650808002	-1
-1.567940675237888	-0.9251197066991463	-1.7078175658885488	-1
0.704869098912268	0.00913842355701727	-0.16419454322360466	1
-2.158939465811181	-0.6306879519396121	-0.9708887463624386	-1
0.41454278350045715	1.9340612641939954	-0.4636098880786681	1
-2.4987507733397596	0.13937181671789653	1.7347932182514503	-1
-1.8379205996419534	-0.5037006858611761	-1.2568144461685096	-1
0.3743496627319806	-2.511314772507423	-1.0623592131380033	1
-1.7597848259859423	-0.568568924007929	0.2381995713614682	-1
1.782133066824191	-0.10706904444420631	0.5214380473417513	-1
2.9104690844454737	0.037201757169373316	1.7866183105527362	-1
0.3200778616996238	0.07389559260817789	0.11688860425453401	1
0.3292780261963103	1.7995549512054325	0.22964283608021693	1
-1.8696582865144133	1.055505093872102	0.4479246945161288	-1
2.971032642039705	0.5097419102689326	-0.65936406488167	-1
-2.1989525378943324	0.5237279499651047	0.2049174503835837	-1
-1.787592114698718	0.10946226704115153	-0.060005735161490326	-1
1.5767835639292898	0.18056906905725745	0.7784339476440122	-1
2.2902416006695847	-0.1302733253178886	-0.0995199027246542	-1
0.45309788555505004	-2.209126048746669	1.44954925496722	1
0.4006515273829382	-1.616185723561419	-1.813592017553778	1
-2.0900697058027937	0.008494208534558265	-0.3619354667561567	-1
0.09069581093097356	1.9658568750479501	-0.7552724868062757	1
-2.581945856977501	-0.06589108397786449	-0.9931184965254296	-1
2.079609907297557	1.0686652447557348	-0.4991586861919391	-1
0.066641616153104	2.6652585447877684	-0.4292321376947145	1
-1.7184802600569065	0.3391574856954636	1.3020806514529004	-1
-1.7234872025997303	0.5883482966874148	0.13420849786955935	-1
-0.571784234437189	-1.7522897350637774	-0.3180566909759983	1
1.6762624074345116	0.5227459200935286	-0.4605027664484583	-1
2.331145230868308	0.00882780151241063	1.3699373286053695	-1
-0.19226306174017824	-2.4876437785441485	0.13478472390823454	1
0.6761277429576045	-0.3476692348759685	-0.24318558212286254	1
-2.268149849828775	-0.6735195235894955	0.36380047445617203	-1
0.5481347837454135	3.0450211392709803	-0.2855591287707975	1
