-1.8057854196929832	-1.5538873618546665	-0.849156276853335	-1
0.6257473985723435	-0.6532754074668471	0.9213729537898501	1
1.0363187140390988	2.143118114510755	-1.6008495477778948	-1
1.061568255850667	-0.7751964577309671	0.9065662694623593	1
0.5573400972862318	0.880468848083336	1.167798681150941	-1
3.2280323169119294	1.5092841255746114	0.563462142457943	-1
-0.8233940688439623	1.9355864076422336	0.3437318711758666	1
0.7070846372153105	1.5912480884597555	-0.027200562572283527	-1
1.7393502743239926	-1.8902702819318458	0.37097465969078414	1
-0.7231577528571802	0.22945294217799617	-0.5878142839169163	-1
-0.19944751309761846	-0.7611789512119249	-0.21376371576156525	1
-0.7490435982308918	1.272384461585269	-0.22363280723325685	1
-0.35781303409666704	-0.3789189627311699	0.4238159747499244	1
1.6074376169505085	-0.9897225254263118	1.270487742393295	1
-1.4533930491842175	-0.6921907763445614	-0.785627444777473	-1
1.6804531551109543	-0.6077413783834582	-0.8416031442062414	1
1.420912972687926	1.7395781841750393	0.10386587269202661	-1
0.23389622224027515	0.4854579093938086	0.04344470110460555	1
1.1778933672383116	-0.9482706136782716	0.6028302608610837	1
-0.6875939012309722	0.31569821278674304	0.11901917157284231	-1
1.2063384754296769	1.41279143140493	-0.06891094911191314	-1
1.6098540068624005	0.47230004571259515	-0.5668518754560461	-1
0.557642122022218	-0.5841493829756715	0.11185674923341114	-1
-1.2765370326457033	-2.638983469477933	-1.417116531216343	-1
-2.4543184748758917	-1.3488357377639373	0.489031070717306	-1
-1.4335727368926365	-0.9256149739134305	-1.0202760627337069	-1
1.829364293325622	1.6404133670598604	-1.623319551049776	-1
0.13720947097451783	0.30466606855557204	-0.26345004851927295	1
1.7201992106378208	-2.20608162426436	0.5743345394609375	1
1.2436174898125554	1.3811595729297483	-0.8088716790279991	-1
-1.0985126985918663	-1.7934776306656337	0.09599731354714106	-1
-1.8637204340599105	1.314279133073107	-0.35401837412015313	1
-0.5323256024282975	0.44209342321314465	0.09060967717558226	-1
-1.3817089781146965	1.5616068749394825	-0.41956575134847257	1
2.1718569375119716	-2.50669403429874	-1.5753785607641542	1
0.5641476126888446	-0.5732765202988706	-0.27512212099180755	-1
-2.0399127758921125	-1.894060448318674	-0.03550847961307658	-1
0.9766541571175952	2.0998730795956444	0.22683256435294674	-1
2.215830305612793	1.69213845459677	-0.15010222608801138	-1
2.962437094455638	1.5490333760070025	0.22881067508580016	-1
2.0371277794337677	-0.7696928299164965	-0.6622849779787005	1
0.9577323050999755	1.75291200163917	0.5120707058450515	-1
-1.0533799678500189	2.3957875573404706	1.0648423009377954	1
0.7685278224301408	2.37980009673668	1.099262877076688	-1
-1.5716811747531043	-0.6526517710368133	-0.2164915191333738	-1
2.194073761158871	0.9192496879197736	0.6004394602964453	-1
1.4129664659277514	1.0961028106666875	-0.18308390131295388	-1
2.631914632130299	0.8194209836799827	0.9417394939606963	-1
-0.6691145315070455	-2.1565363614836612	0.098139407959693	-1
-1.9108213375129592	1.401139311681284	-1.2476028210614276	1
1.2389683484292573	1.71325907870916	-0.896546108631117	-1
-0.17458798369286943	0.5637284569563701	-1.1295838253695007	1
1.6820689423747515	-1.6122083514260694	1.0955723965568533	1
-1.2244642970492703	1.6307137726643566	-0.7834124882990328	1
0.6075278547963736	-1.43863976616201	-0.6808651522393268	1
1.7099344200449662	0.6907352320040478	-0.632200234274477	-1
1.770423021141972	-1.0673448389316482	-1.3994700503574702	1
1.2901469689630225	-2.1894644210915257	0.8300401443724628	1
-1.1797827418264377	1.896035890615022	0.15221533205534368	1
1.5783499229931217	-1.2469643448442858	-0.9191393377533233	1
0.7966694863973219	1.5091451749004392	0.18370889930687817	-1
-2.351306049668995	0.7930075056788105	1.8054941206626784	1
-1.7698146839588036	-1.476770624884416	0.5398609223493007	-1
1.3005962317948656	1.5410531538319523	-0.15547011123204027	-1
0.9163936704471385	1.5333005267146484	-0.6338914457721384	-1
-0.09695243359029068	-0.16743896980450565	-0.013287374633407612	1
-0.8311066917947234	0.12558926429186779	-0.3531180798363781	-1
1.6502418498812703	1.5523793740182432	-1.4765680259357925	-1
-0.9398739744098917	1.0194291290554576	1.1074782237226573	1
-0.5144530011725457	0.44296076593441064	-0.4400783509538185	-1
0.8096111935631408	-1.4869865565430285	1.8520941540040152	1
0.9754747057721718	-1.7031797267837256	1.9847080248085551	1
-0.7765086130618167	-0.9955081938754392	-1.5501452192792664	-1
1.765513386358402	-2.0401298214538945	-0.3218022144009196	1
-1.405755742389033	-1.5540660838854174	0.415500813629772	-1
2.1504222846015275	-2.3034428473970237	-0.007081663341223083	1
1.1394338264685646	1.7358159100699855	-1.0559367978417096	-1
1.7478763838280054	-0.8394733860908361	-0.9021745606705095	1
1.345709267560178	-2.081602215363102	0.30492691616804485	1
-1.5843420985971335	1.3680920477080214	0.1065075727446056	1
-0.6496374211770144	1.835276115356045	0.4360814284576834	1
1.7366534042532624	-0.5938765327395975	0.3215151733758627	1
-0.7606937537191993	-1.7550075622044194	0.8412711166959337	-1
0.6735907895313032	1.8499971748329154	0.1569046281051385	-1
0.1633845272871458	-0.49921142116305267	0.37914996493717507	-1
-1.8484019132032583	3.5685352267804635	0.5171373525681171	1
0.628035621091605	0.13322216133200857	-0.16415632752455997	1
0.9593128013808223	-1.5146286593510452	-0.21637667568372146	1
-1.434683973360098	1.8570232515987386	-0.09979970321030983	1
0.625368210454627	0.527816394879282	-0.015770861062506192	1
1.2490000919160913	-1.2706934813399402	-1.4520115582936555	1
2.9275006899318314	1.0862239908234332	0.07382632456082239	-1
1.2868528450729109	1.179675019748086	0.643515580814179	-1
2.21317126060952	-1.1720340872176673	-0.5171264209389788	1
-2.2165049613294356	-1.9063956297754683	1.0709623043127645	-1
-1.6663808023877065	-1.1043365834631695	0.3633369672664589	-1
1.3899736932910334	1.3528099726441978	0.8293994891730098	-1
-0.46190684239774304	-0.4752254463901155	-0.15449680655816342	1
1.5952910919117398	0.9823688479166498	-0.4685970422436951	-1
2.433712275456763	0.9919387706923377	1.7347447115858534	-1
-0.7578125489484084	1.1246881434185398	-0.04822359800483162	1
-0.8346197157722277	1.141513970749546	1.4334814243892662	1
-1.224620862932554	-2.299234759306801	-0.6481643457690804	-1
1.118354795652542	1.0415160913246277	-0.3568026764941132	-1
-0.6824044208634852	-1.1351558774781811	0.9777572144512316	-1
0.38219054635231103	0.5673775374121236	0.3516787577674812	1
2.0514595817420544	-1.511893955204312	-1.6518117604584965	1
0.9231925835617827	-1.2537457308721682	-1.4712001632032676	1
0.7479879941608635	-1.4070168628811313	1.2579945916588804	1
-1.317646758549581	1.7985797491045181	0.9321399806296299	1
-0.9400107389305541	1.205078524133105	0.8477537598559979	1
-1.415594643051923	1.9689353961784055	0.7290815114886335	1
-0.4861228516620941	-1.5387293696139768	0.8895557158383167	-1
1.8309665322079707	-0.7926081279350535	-0.003697888895453245	1
-1.2772339287001966	1.2351515766945627	1.003295295227173	1
0.4666693828278232	-1.1149134682472834	-0.8496958774651149	1
1.9896853259975764	-1.818073410144486	1.0980298465947234	1
-0.6918680867423719	-2.284859047943539	0.14220169051941955	-1
-1.5285328999035963	-3.0892505668064807	-0.4891801215848559	-1
3.130353605907085	1.9591272067252277	0.7256187585831868	-1
-0.8261438820342364	0.3115154227078997	0.22870793180406768	-1
-2.047948960260708	0.7586458572961526	1.1652728787715894	1
0.5510830572503901	0.4631009178544663	-0.26244094850599015	1
1.5795873532672795	-1.6750005502929781	0.3095368280456894	1
0.8403589056328524	1.8105864815226589	-0.11784347240838536	-1
1.68014861688613	1.4625125294449792	0.5113949270017164	-1
1.1529964650394804	1.4980222472337694	0.6567537142897175	-1
-2.3197532023628575	1.315386412865692	-0.18015097517388298	1
-0.4064794095413601	0.15415065054643493	0.6751828863285975	-1
-2.439445463955993	-1.4308259187141668	2.830525531205789	-1
-2.4106807361388105	-0.27156398667685283	0.06925295403444391	-1
0.9596029199018402	2.2846988295110786	0.785919386318951	-1
-1.2463258155854504	0.7354453820392101	0.15145065785786183	1
-0.3069870395561276	-0.5224419734556297	0.2116519290057724	1
1.897400547508853	-1.5209116230026283	0.09328867082319614	1
2.5878104780150646	-1.8691263856127582	0.8897900505727908	1
2.2558117157710025	0.8402917641654439	-0.5355985712176683	-1
-2.963338616478314	2.3297082013580837	-0.4711758245479035	1
-1.0732272155925293	-1.6737169276599104	0.42709887961335014	-1
0.6525805766177747	1.783316032473385	-0.5540192133732041	-1
-1.7494429081679717	0.7941025199978226	-0.07456681344148312	1
0.4205347167719333	1.4905008449385713	-0.4868032107694328	-1
0.6673574149075391	-0.5237184922885966	0.2011275380002894	-1
0.3275607309781191	0.47348619012560383	0.2884226386558525	1
0.9093092871363194	2.2476498941333545	-0.06378868423346333	-1
-1.9262144246409445	1.8004470145215934	0.3588737320913127	1
0.5801030092654682	-2.017995548245796	-0.3852557588646183	1
1.8185946222027554	1.6302136835979468	0.28781540601848604	-1
1.6887560292592227	-0.26276667277313576	-0.5356698864765069	1
0.23483842979924502	0.7704506175281002	-0.11395030963834774	1
-1.5215116373936173	1.4996644236135799	-1.5418731921515079	1
1.9251000178499797	-2.4530980223774805	-0.7533148031252456	1
1.9746053015277703	-0.9715684340737142	-1.7086672849084712	1
-2.8043994317156415	1.1828892210125381	-0.49968576872992654	1
1.275878836766189	1.2680657929866166	-0.7443978651577015	-1
-0.8389090619996598	1.5171543435204926	-1.440306647735123	1
-1.5379209402720238	-0.7579847431687324	-1.656483108070129	-1
-1.1178384223784494	1.6959550847790206	0.3202690098625396	1
1.6853053876207977	1.0375639634956586	-1.603949268353313	-1
-0.8896090734409207	1.5709431924628952	0.27560803084483226	1
0.4011848998184567	2.049598002151356	0.6240143708169622	-1
-1.1635708284103552	-0.8683057451236936	-0.9281290564842417	-1
1.1101732641676147	-2.6292580114968214	-0.09166940160349973	1
1.641235071535858	1.56534045316612	-0.8184025185077135	-1
1.1003010614296784	-2.138017583093018	0.5627736396124277	1
0.8584911302525292	1.4761453827142306	-0.727768373403419	-1
0.20368382886452122	0.28955413427808424	-0.1733452577082475	1
-1.1913292466868448	0.3138418127329018	0.4367582740518026	1
-0.7682514496469444	1.045738948842342	0.12244072033698342	1
-0.4196208336983242	0.392764470960232	-0.1528269699490281	-1
0.646998670622601	0.3207108826183644	-0.32435506477972725	1
1.223930891874258	-0.9030849956069926	1.0787851079622175	1
0.2678293209458447	-0.2999539393729008	-0.4147044319820979	-1
-1.2179059999150468	2.2193168599892372	-0.1695346295033951	1
-1.6878746260665674	-1.4752524272594705	0.24434670826775112	-1
1.372022806513185	-1.2952945902491244	-0.9838721743727759	1
0.6345280125510522	-1.4456896957942433	-0.052682880369270935	1
-2.6055328444817167	-0.6350567684064582	-0.9448014127859081	-1
-1.1473327459393998	0.32402341568212756	-0.9032244490366553	1
-1.2318959252749702	2.207255661324351	1.5794446858800564	1
0.5689434516484221	0.8985363103604387	2.2433194307478677	-1
-0.7178668179156787	-1.9755023092508701	0.3129810842786999	-1
-1.5664342893986172	-1.6682411396262773	0.4059674812561177	-1
-0.2182638966521039	-0.39012637868858546	-0.06643199532265463	1
-1.3432476721599405	-0.929797633117126	-0.27432463347752695	-1
-1.876034116387382	-0.8661535978404477	-0.16378804527043753	-1
-1.1284340800643977	-1.559566295238094	0.24203894745133037	-1
2.3998973433068937	-0.8468652163688895	0.38581180265366966	1
-0.29815196018417833	0.4171617780510084	0.19312940343468687	-1
1.8979356589371479	-1.0276746459609811	0.5574207572580786	1
-1.4926292310927312	1.2341895027909608	-1.6593663008918935	1
0.7654196005539216	-0.5863153185356329	-0.3304645653612619	-1
-0.855096006652893	0.4151158070125064	0.06968911797767084	-1
1.3560300896317987	0.5618231624636086	-1.3776957276380986	-1
1.9065760114499761	2.4465004017895122	0.7633416728041624	-1
-2.166191383088645	-0.4910490783720855	-0.3817211294362766	-1
1.7213325660208263	-1.7803586091855985	0.892825890434022	1
1.9659670308497128	1.2789951945176383	0.498859666379951	-1
-0.9255003103867948	-0.32769301922947525	-0.13383751984517367	1
-0.164579136785171	0.9462312727238568	0.2285765844458156	-1
-1.9689361380494423	1.6365699974009162	0.018735813631159608	1
1.0767256518951458	1.4771759441322803	0.2443383221266796	-1
1.3450773318867515	-0.6960519245264022	-0.37697642039230045	1
-1.9444892218242313	-1.1671899464789641	-0.7864204197993054	-1
0.8550991124436651	-2.0909240144857617	-0.8120447515439788	1
1.2866293773380366	1.7159276143410076	-0.1821297287808429	-1
-0.5957037845780007	1.087693289494502	-0.8489082636562296	1
-1.3315335253477008	-2.2041153654585064	-0.9649882887713368	-1
0.31237617602022927	0.534516599038014	0.01765571584919055	1
0.6631699615524687	-0.2092737920926493	-0.05588353729477218	-1
1.6416749347003394	2.0651402899597726	-0.5430445458131418	-1
-1.4211871210163056	0.8061439185977948	-0.16425555935204592	1
-0.9476618771038576	-1.6959660449780747	1.597022831377021	-1
-1.0429314981346627	1.3732206093380688	0.10082711303605547	1
-1.3354036962255753	1.1757544616542586	0.021949720139566593	1
1.56251779242091	-0.9538404555334664	-1.104929882564085	1
-1.5210558659346558	0.8466551447540533	0.12380679916830506	1
1.9446855040912752	0.7403244356391823	0.1255010036495587	-1
0.4812714167220431	0.6098758128441476	-0.13011165462760635	1
1.6617299865517918	-2.309747498315499	0.5266491977191653	1
1.8788888983639414	0.8599906730106579	0.3657460265909028	-1
-0.2678321354311479	-0.39808859940568403	-0.04890054837128704	1
-0.862211103738157	-1.8006035163882785	-1.0696179596950797	-1
-1.1068221199455122	2.532599267781421	-1.395244862013419	1
0.5460321453282213	1.4593660689525703	0.9674776093744795	-1
1.4310034486384984	-1.5850216631739669	-1.3718199072901678	1
-0.30947126001123015	-0.2904208154155323	-0.10275828164284447	1
0.5162575210458104	0.6111448822265698	-0.08346279180148296	1
-1.802480459860445	2.006584837571322	0.10477728133715242	1
1.4147969122235695	2.516441222479861	0.6385027549006931	-1
-1.7746008168315894	1.1801709254395432	0.06363206415700877	1
1.2005756430444512	-1.2243650851072494	2.4362146298859653	1
-0.40341922013038733	-1.4298985091551992	-0.8406022514266127	-1
-1.8611281543417697	1.4991080814057034	-0.8376540582762971	1
-1.3129406647238293	1.4908687389441315	-0.7899748411405464	1
1.0493095204028209	-2.5322209558879862	-1.0243029598823392	1
-1.4942914866486765	-1.7275660619066902	0.7392419192371898	-1
1.0207471054434147	0.9586481029509039	-0.46833498024408127	-1
-1.292877782846246	1.7683630341757963	0.3534139630802637	1
1.3768930995953699	-2.053154709879123	-0.23150641873127709	1
-1.4824999009842224	1.3778655735351988	-0.1916694848768678	1
-0.6459179260135459	1.8648546764699288	0.5736395192013808	1
1.1989608580132713	-0.2237609809448361	1.3620509906739882	1
0.689579349736672	0.45080569756521865	0.012328204763616797	1
1.4020638048297778	-1.456146378421228	0.266000216015951	1
0.639656405161782	1.661925116980492	0.2859851809588973	-1
-1.6741697619618627	-0.20688080095431519	0.9387955479748871	-1
0.3997646036610998	-0.2345687733780372	0.1468520014011363	-1
1.8776757781699904	0.43127938439402974	-0.05481566139046479	-1
1.6119353191310897	-1.2572754689937418	-0.9619169071681531	1
1.1058398106774285	-1.396107868234622	-0.6910217641357774	1
-1.6988936892646198	-1.4664119022633135	0.7136505415521128	-1
-2.258884308494211	-0.49664502538144584	0.49202366117304663	-1
-1.3410454166545875	-1.6199285429697323	0.4094007459355511	-1
1.2231385628650888	1.731899639441602	-1.5203018736505718	-1
-2.018448471790805	-1.1786223803732996	0.48409094924258567	-1
-0.523099281980401	1.0641417988411812	0.8441753875246294	1
-0.5019472014453761	1.3640841339818273	1.9191355363102405	1
-1.9981601081667735	-0.8611251384078854	-0.05322764045152585	-1
-1.8594776434186515	-1.0154885029708631	0.7652782129196611	-1
-1.9382540949945857	0.9348473887253319	2.238009951640758	1
1.4668984870282933	-0.31909039230841496	-0.45360339261970967	1
-0.6357678537035838	0.11428395248359316	-0.2359549552880038	-1
1.3863935881278417	1.656365562122473	1.1939788377233362	-1
0.07907657747825686	-0.29281221396508234	0.20359766163318366	-1
-1.495378443572459	-1.3339707317050917	0.44816282504954263	-1
-1.136433061861139	2.296304851705171	0.4937485282327061	1
-1.5894182370433871	-0.4360424186557378	0.4016669912654191	-1
0.9692856610166836	-2.4925052682029616	1.156621100354912	1
-2.667558542156988	1.959659610644813	-1.3295046544463307	1
-1.6504593756458512	1.1774863895864998	0.058460124396851956	1
-0.615994013030774	-0.7495512306008392	0.42695927659450894	1
-1.4892075968096794	1.1655148929938641	0.7142435325256902	1
0.4040633208258461	-1.200077688683257	0.49603729924012463	1
1.6502517081537993	-0.9485586929936928	-0.541440672669632	1
-0.3704411040179156	-0.7822922174725748	1.3586908075067257	-1
0.28490606586733924	-0.39032434876699007	0.23089186621626154	-1
-1.961107990897105	-1.2469814897711733	-0.2782600442518147	-1
2.5789489925678817	2.779572821929148	-1.0756681502686996	-1
1.0545973152291317	1.783885650723952	-0.33613544335681966	-1
-0.30344000229981094	1.0132453354829187	-1.5878444161001948	1
1.7147896193127032	1.478077732088986	0.8321792229324343	-1
1.711528804973546	-0.7759726786261267	0.8681943940209997	1
-1.4039334465209843	1.4451726966105916	-0.08695148002980475	1
1.0628224581054628	1.7396950116042014	-0.15031061730376463	-1
1.965316040504115	0.9532553153215035	-0.2061326345200567	-1
1.5935384530786056	-1.2989769350023037	0.8104886842220713	1
-2.2344304671942465	1.2607347904255037	0.14893050231499125	1
0.5955169286024784	-1.631421411468872	-0.08156538496530942	1
0.8538830665619281	2.513086303834079	-0.047350981587143376	-1
-1.8372494528728618	-1.917389788462597	0.6298669093608148	-1
-1.7645059285164963	-1.665546602360577	1.3787388095195006	-1
-1.71064182076019	2.982394164989421	-0.893005865569068	1
-1.0891307540517017	2.0350754559600737	0.5192593845630596	1
1.3834372608349776	-1.6212640992001095	0.9927620613152155	1
1.7821388143728911	-1.4279946392881235	0.25081696871683734	1
1.400676515265329	-1.547912719727457	-0.3576925604381902	1
-0.5745126600763333	-0.5425353114242043	-0.2507812846351077	1
-1.1822838337663975	1.5682913736421706	-0.4657100603335955	1
0.940420138057362	-1.523596915419041	1.6027697717143103	1
-1.582961860902077	-1.7260601047442128	-0.7848951443798343	-1
1.8700385818905776	1.5332883916360531	1.4692324773097318	-1
-1.3714697155710884	-1.6397928426359643	-0.27365498030004604	-1
1.1283018801436575	-0.7556528583241091	1.5615725019061448	1
1.0747959080197391	0.976716721688383	0.7536688958941462	-1
1.0622505231865293	-1.4192423611203742	-2.003532666037649	1
2.014176132774296	0.6481485250245482	0.5625076712994477	-1
0.5576776122817022	0.4386488041258349	0.3367569676443243	1
2.684253093435045	-1.265552112806699	0.5808272816876994	1
-0.29532041582083207	-0.7261455367542071	0.19636946949521597	1
1.2180724607328504	1.722086089827454	-0.9884352927685184	-1
-1.5904131435587416	-1.4489315153186118	0.4028549829277743	-1
-0.42025740375483944	0.2760105179170463	0.20344959608614982	-1
2.571301246450791	-0.9449330555053136	0.199082315754146	1
2.0650998611484215	-1.6896231792215373	0.909282373890876	1
-1.5867457048368019	-0.10093127815396037	-1.8206421642974435	-1
0.4093096976168169	-0.5246960607267669	0.04251282988271473	-1
-1.2062102707841185	1.5197805471576658	-1.5256476868923126	1
-0.8876454009465647	1.6762567716000216	0.11681543253428771	1
0.7416424389400529	1.279208318025098	-1.1608166399196005	-1
-0.5007188128642215	-0.6230993086358678	-0.41554005940883765	1
0.23534077601936204	-0.35164208800321695	0.30128684574459996	-1
1.676906603966617	1.761784888761717	1.1246834407338577	-1
2.344088632003825	1.905223557543321	-0.7571080312194113	-1
0.3286658844085995	0.4575946671610531	-0.5284590169977363	1
-2.8972480741817277	0.5912541795850269	0.030799523196763753	1
1.6841073843221548	1.519863966491131	0.5402733615302765	-1
0.3405606528166158	0.3624443601701645	-0.297698969666058	1
1.511074322139575	-1.3991396189543959	-0.11270454300594651	1
0.8386085434829904	-1.529488046667535	0.9904357828911119	1
1.2034421274034444	-1.45635170741062	-1.0334611481536153	1
-1.111117675299839	-1.0685218790614568	1.023874775123365	-1
1.3408649078313764	-1.5194872903821692	0.2688355713788667	1
-1.1904000488696616	-1.3106769716260915	-0.15397226609846443	-1
0.4900868578954698	0.5852697762389211	0.13662298610734777	1
-0.8838986953550821	-0.7261579720819217	1.688047244611273	-1
-0.3406149147657765	1.990586058483907	0.03619429211825732	1
-1.05225922659574	-1.461518713383701	0.5180754871846055	-1
1.7275752171939065	1.3852980361707612	1.1240957770869084	-1
-1.5282124430908648	0.9834388818697214	0.41256875276458027	1
-1.5929446348894418	1.7891553481417994	0.616460557239713	1
-0.588785113956381	1.5199041067817207	0.301719118567723	1
-1.100016792276933	1.8314583644234634	0.16668741066713472	1
1.707134053823985	-1.3753442536831162	-1.7814484888616713	1
1.4049189924852483	0.513067846061922	2.332636298105105	-1
2.115175749856438	2.2769844546449365	-1.231034113128466	-1
-2.0525513423314563	0.7518529156151963	0.24103594768793957	1
1.485878274671126	2.2403026014400025	1.0403057188846332	-1
-1.733040801001695	-0.7648928066049012	-0.9115314763657519	-1
-0.4091048330098776	-0.39050722210726696	0.027717377028056225	1
-0.4326884305670734	-1.2943295958582801	1.459795292488483	-1
2.8118402022332067	-1.8174041767706357	-1.3062500390456244	1
-1.7718958852546614	1.8887478694428415	-0.6427286733880417	1
1.1487435093896117	1.9760390451052576	-1.6354325087791404	-1
-1.029945704366134	1.9132116803209709	0.7669919861109049	1
1.8170379975658548	-1.2772049820823033	-0.3626756630055419	1
-2.2044924504329084	2.0332921412049085	-0.908763491497381	1
-2.155001948270299	0.5989027044487417	0.22124728956480433	1
-0.4220667300894141	-0.3662295706160268	-0.2492477453963199	1
-0.8313760782836854	-2.382353422157227	-0.7600058628008788	-1
0.7598597776845923	1.7072275427311654	0.29062295790479437	-1
1.5887622232288843	-1.47596422374207	0.3781539329280348	1
1.6030266302956435	1.7827269482344228	-0.8777074074851564	-1
1.3163388601051458	1.1209479903791297	-1.0381411256151345	-1
-0.08532815652277824	0.5631521726526246	-0.04293572973716621	-1
-1.3663728013831493	1.6021096880590706	0.8657984989179754	1
-0.8044454642657826	4.015330694463942	-0.08041184117843825	1
-1.5455971379958655	0.23094999793992044	-0.40530769107141396	1
1.5387123335324526	-1.428135861671521	0.009833775271556083	1
-1.20497715047097	1.5530046231209755	-0.9967357578722759	1
-0.5431029410734697	2.157027918795948	-0.21626338626101016	1
-0.23243147515801832	-0.6360609934632583	0.34363956592028344	1
1.2289842480293829	-1.7681955142306265	1.0996590364174854	1
1.6135098090984556	0.789484846580405	-0.40876639707632906	-1
1.2628216627893178	1.875735941757731	0.20062473327337915	-1
-1.6021140515340886	-0.9026805745572188	-0.2983984503893545	-1
1.408686199527664	-1.1099623130634189	-0.044225054259344455	1
-0.8546677393857065	-1.0563401884949026	0.7525880889464754	-1
-1.9561945385821446	0.9344248307325362	1.8414715072085064	1
0.8770725642023083	-0.38563231294617545	0.2229773684046148	-1
-1.5727580475568155	-1.385533271672694	0.06079694503883129	-1
-0.3114588352794698	0.6057517755969308	-0.18630997208710537	-1
-1.807784544765469	1.6479418413485392	-1.002251297788966	1
1.3338026995702903	1.1200754715251733	-0.6951793993089282	-1
-1.0675248622694642	-1.4449158804354483	-0.5554170490819264	-1
2.5940861010074445	1.936486286424813	-1.0567807887164624	-1
-1.5890590296133784	1.5877852201490337	0.7514040632635736	1
1.7690163305731819	-1.1680857888531586	0.44195659430390655	1
-1.0066211572646682	0.9480895775170377	0.7591290093358714	1
0.10725633721772146	-0.6978440211481128	-0.19881049163734552	-1
1.8624392172763125	0.7419357408990221	0.22540748223997964	-1
1.852966674259635	-0.8655670522681391	-2.10889335530905	1
-2.5156108617583897	-2.7542760776625674	-1.6019593955153768	-1
-2.0208103418500243	1.0501766713326623	-0.06456015176444586	1
-3.2381679606864675	0.7772133886872998	-0.8145538168496528	1
1.297072638558646	-1.3623999015761732	0.6435098431734266	1
-2.1845199461748623	-1.9276629091898005	0.6437778537467597	-1
-1.5366029961198073	1.97314950572264	-1.971388629313345	1
-1.4459468937617874	-1.9099207579624284	1.6174352544605808	-1
1.4817143796024728	1.283225797660986	0.7170409683501903	-1
-1.0404352125054044	1.3846495327054358	0.4553150137820565	1
-1.0621071554075037	-1.4192719847091728	-1.5218528808604415	-1
0.32586198131948485	-0.36021385244677945	-0.05487691638022725	-1
1.2973986831889384	0.8723381171491461	0.2703145286744605	-1
1.9139569841629667	1.914563802704583	1.1800178612950298	-1
-0.7775858132414297	1.5093455681386088	0.8158238410243288	1
1.591292475524133	1.4226423093117646	0.6863137681913483	-1
-1.1890874487035281	-0.8416443615428968	-1.2989625926443638	-1
-0.6357100910177871	-0.6996514952508577	-0.15048200004072293	1
0.5688472476500487	-0.334203900281108	-0.12289662749575694	-1
2.5228126602410583	-1.0458323518801342	-0.8243413995260781	1
1.9794888807116426	1.281731676198496	-0.07331209571469087	-1
2.537924918009773	-0.4950583015454176	1.1763187316116406	1
-1.513190867721245	2.3353049060954123	1.133827043215225	1
2.3597682912884315	0.42301206718827467	1.6360750912839688	-1
1.3613867989046806	1.8799150470261918	-0.25022001661371096	-1
-1.2086228134521528	-1.4639360367287761	1.4162681781917121	-1
-1.8066789653794029	-1.7574184171721787	0.558311268500797	-1
0.6651897215196434	1.7523961053960986	-0.7983910195718399	-1
0.3213929913224611	0.3533493362162001	0.0018211476260093702	1
-0.9789855501706115	1.3666246416984817	0.4083784823741259	1
-1.6899450606176334	1.8197702799497701	-0.043233565791480515	1
-1.8848879726158196	1.2031157911998402	-1.0046185866222135	1
-0.36127762067137564	-1.710306400050654	0.45196036672146206	-1
-0.8173677410795614	-1.5590024330958305	0.7496473414877015	-1
1.3664263145225473	1.2208158736802808	0.5866083135833938	-1
1.8125470113885065	-1.228270776785769	-1.182576646469072	1
-0.7869826928784606	-1.1798304718004358	1.6455853716143083	-1
-0.9111686601975321	2.5673682019099338	-1.159526598711396	1
-1.320689255604384	1.6837412508047807	-0.9840736951916575	1
2.2393543401447737	-1.1709926511417796	0.464752245056731	1
1.1299480255264314	-1.3669023348866602	-0.5779717551749237	1
-1.2239691206948926	-1.2481245386618751	1.5255234753161528	-1
1.6366985389591442	1.7073314378956235	0.5184897713507401	-1
1.426074941317894	-1.4848440431041583	0.6917619380400266	1
2.1148146895397457	0.7266063552734342	-0.3269574687402132	-1
-2.1575231052605504	-1.3081066925178475	-0.4415910071023477	-1
0.6130276878844231	0.6759369340812492	0.3216701672054099	1
-1.0270401388441	-1.0470538507552392	0.9344573258082605	-1
1.6006240277218653	-1.8030530247463419	0.4429708098382259	1
1.129947260129123	1.7582048855088848	0.6479834120658994	-1
0.31479895974609207	-0.030703472549284114	0.47731583222493684	-1
1.4910028221910367	-2.1821388527956	-0.5982932273904367	1
0.3999291158293935	0.44454741711765283	-0.21918608230191028	1
-1.6587397416780971	-1.2692657204547964	0.06558403358169843	-1
0.2948803487750238	-0.32094205869440995	-0.12962899390230648	-1
-1.7938179686526856	1.0081467723748256	-0.539006573265345	1
-1.522224650237284	-1.893947003667034	-0.4283092470885593	-1
-0.3731966504301646	0.8257945091654785	-0.17064429770683145	-1
2.0796627653647515	1.1650302020106027	0.9756486253968446	-1
-2.066743859107731	-0.6527949279696559	0.03465744680146448	-1
-0.5563739739129936	0.33525665078491923	-0.029639768871422324	-1
1.980006093441028	-2.4812003630315935	1.661823684896135	1
-1.5324062100020397	-0.849282186648553	-0.3485665407200425	-1
1.7444527245713122	-1.8075185064483568	0.23226492712937297	1
-1.581498740251431	1.195901839259595	-0.8650947169400593	1
0.5616999493090783	0.3075708237583901	-0.005181487472856929	1
-0.7160452233486941	-1.544674618366581	-0.1883758445604845	-1
-1.030312384610369	-2.6023695994869604	-1.199391702527281	-1
-2.003608317824275	-2.352269644191776	0.3868091740938777	-1
1.487376789788005	-2.3505192376515383	-1.4171063729280071	1
-1.2519489469759777	0.3090081485335596	-1.1088435003068213	1
0.5987632638934027	-1.034117172675438	-1.8906912163644813	1
-0.6191222983801655	2.2011775903482045	-0.6346429623367392	1
-1.9186356144805925	-2.087027041034699	-1.3218372908211427	-1
1.811662347337248	0.7869333372356875	-1.9994274351741663	-1
-0.4297590271352106	-0.6139157099230003	0.228609405686273	1
-1.0392908119519768	1.3415190064422382	-0.4542432389258007	1
-0.6300425486683454	1.4594881314337647	-0.135760603657308	1
-1.285393034116093	-1.092205282904297	-0.7569215835729718	-1
-0.4716161084829622	2.1836158543492385	-0.14503678199734324	1
-1.4533057207772568	-0.8140874997044847	0.08330231993712832	-1
1.1779454335305966	1.179587171001229	0.7315892339784363	-1
-1.0355414551988307	1.2547418753751332	1.5361920025607299	1
-0.8432054221573044	1.55613133264769	-0.30029685123956795	1
1.4576628779240126	1.1496387376088941	0.18555570630302687	-1
-0.287319880860367	-1.5254326562150065	0.4075919040602635	-1
0.4371011217513764	0.3949081741108644	-0.08873476850041506	1
0.27655687303990034	0.7806832442567926	0.057735195943262985	1
1.6122912180903848	-1.1088633385827114	-1.0517461040024292	1
1.015304201965697	0.8799532361752824	-0.27348386391326035	-1
-0.8124956930964858	1.1135792482948426	0.901082626122596	1
0.7142314501891478	-1.9719041429392588	0.743748652308494	1
1.1337328131050266	-1.8373791612303272	-0.5693910205951064	1
-1.6870341444546637	-1.1213213453495328	-0.07474568496300237	-1
-1.6789668301365221	2.055114841434013	-1.1587104829387875	1
-2.8252332289116158	1.5984033646134097	1.0270328802132382	1
1.3801485386947148	-1.5021492958080098	-0.42618837181667674	1
-1.78698428676097	-2.0967290289244715	0.06678383396626955	-1
-1.436547703324745	-1.1034556027967946	0.33130109922457596	-1
0.5224161623645384	0.46918086739095666	0.617745684268364	1
0.2485963189758302	-0.28147547585037747	-0.3107819779941332	-1
0.5506845006198703	-0.24913741867082187	0.028387155367594397	-1
1.378914701724908	-0.9022759395840949	0.23169865522118807	1
-2.2088293966852754	-1.5782865818748029	0.2822734485996457	-1
1.3261049554417446	-1.9078734909844828	-1.5307582785304836	1
1.4906060282572005	-1.6139111397903319	1.258699719656822	1
1.14191506236473	-1.227613875404619	0.31606024021926327	1
0.9680266764412571	-0.9107870340387412	0.8544223046423591	1
1.4790852477384506	-1.7015342359860508	-0.16091553042987275	1
1.2200581238053334	-1.5186259875728276	0.09164436296588517	1
1.648782277473969	-2.2144852772182846	0.5697909607997249	1
-2.133934158749493	-1.6680186374483879	0.7376837659731692	-1
-2.4077237333958736	-0.7238458473734317	0.25355365132712565	-1
-1.1035417780297496	1.8894844751748043	-0.3344173905926635	1
1.2732237851475303	0.5911107852501765	0.15242264678472994	-1
-0.5988720964762493	-1.54869904234166	0.1797607973053197	-1
0.48318790545344925	1.839166626505415	-0.08797394216812736	-1
-0.7085497717247167	2.221213861796468	-1.6331496932431566	1
-2.103074686258437	0.7051127018089861	-0.7262313215527925	1
-0.43322211709489616	0.5731604948866312	-0.22156679060350784	-1
-1.869921032297398	0.2735536067631323	-0.5304960437388279	1
0.8664362372325114	1.912059265267171	-2.0088712958084742	-1
-1.7005356289251627	-2.012989903606541	-0.12254055518124155	-1
-0.33608024649770885	-0.3371437232576877	0.2538344999526517	1
2.0275382481147957	-0.6919925214453025	-0.14301632106775528	1
2.2526603076345477	-0.9203060665589654	0.664786602459637	1
-1.38580249304844	-2.4554387036548686	-0.6107977319215908	-1
0.9238336824269212	-1.6525711660529117	1.386487539333265	1
1.3237587903990564	-0.9427343174975644	-1.2210517035802382	1
-0.9508481889612886	-2.1207005022827707	0.4821345027615121	-1
1.4906917460223201	1.2707026942088966	0.20527311682329705	-1
1.4630015085260588	-1.2844580123711404	-0.42629477588740533	1
0.4461835216010497	0.4903930203229136	-0.4258611739487658	1
0.914343064911064	-1.30022813758498	0.04506906726374288	1
1.2133050209326401	-1.476113426605341	0.7858819879078076	1
-2.0363068721796465	1.5546596095205123	0.8920684930529916	1
1.0682430457944956	-2.191805597696548	1.4425283050201667	1
1.6510152627230728	0.27597085528775944	0.8667718238990991	-1
0.8064738078061489	-2.346250758123283	0.7452836790586255	1
1.1692209508163494	1.2821771470388474	1.4465544990699661	-1
0.8260800348283074	1.3686294431696717	0.5486873189641196	-1
0.501014295541031	-0.6532245372445927	0.43807493960891747	-1
1.6127368112273333	-3.145668125317077	0.22846934328731888	1
-1.6784402429972856	1.50242054879426	-0.6579862403925487	1
1.9080496027425342	-1.2387475913476251	-0.6981618727919536	1
0.39560662975845606	0.5059517606251019	0.038459689847568285	1
0.5789664229075114	2.48397605623525	0.05038845911031541	-1
2.1271682690575986	-0.45524946450412673	-1.1222249353894067	1
-0.9473784918343026	0.37404420035572955	1.4864421416354836	1
-3.085805649125279	2.70800616566269	-0.5190170995261248	1
0.9634464000789313	1.1837500053970955	2.305869016108069	-1
-1.3551417057860684	-1.2879454733610343	0.24083003956052995	-1
-0.4282935741425238	0.6075040036052453	0.16371412027559656	-1
-2.5166772052976643	1.0681156379544243	2.814112082360703	1
-0.6900645408487227	-1.7378537462815524	-1.2950732875728586	-1
1.5596073922348086	0.3914455493464899	-0.14725172630868597	-1
-2.570189781909781	-2.552652144998998	0.8106347867722317	-1
-0.4931394301099117	-0.8160206207982568	0.2860374758593571	1
1.914060655624941	2.421776226552563	1.2050248609115062	-1
-1.6157140963614536	-2.531230753333948	-1.6054164750057098	-1
1.1297240581273154	-1.1621834459253537	0.7289965803329513	1
1.4059530531560362	-0.7845956850348803	0.015169193565437503	1
-0.13384964756671408	0.4535419277416268	-0.24758282050510771	-1
1.4299596114991484	-0.8222549411673699	1.011891120008031	1
1.4501018465267541	1.1367060549101096	-0.11342334480896409	-1
-1.4788884997137473	1.6757133537937845	0.06467443811037366	1
1.3210563510518503	0.8135057103075513	0.04128846508986273	-1
-1.0837748277605297	-0.9947491408668399	-0.08825441755189081	-1
-1.10080003710779	1.2967803971108043	-0.2650828475110657	1
1.6571247699790825	-2.2265104876550788	-1.907408717628525	1
-1.988467818510685	3.15069590562074	1.3176004865978435	1
-0.37331027359081936	-0.2893923754830973	-0.031179566763560585	1
1.2744989984977657	-1.9684534008872199	-0.7723890324326645	1
1.588970420017657	-1.9296581270617592	1.1732320120183422	1
1.080272843631137	2.3187070645657197	-0.16717467024915378	-1
1.7634336545485745	-2.7171587633370606	-0.6080413680769263	1
1.817847953695635	-1.4341364118106315	0.9774549032196067	1
1.7614401167350928	1.0885310517785207	0.7099006770323386	-1
-0.1802866793594903	0.521962931803926	-0.14583565761284306	-1
-1.989640350953568	-0.9905164489232594	-0.0506763268522604	-1
-0.715000005313259	-0.2919992297445277	0.05196925590728312	1
0.8727410852889742	1.418575956078965	-0.49618385362752426	-1
-1.1707493236278006	-0.5085418480648011	-1.2969221568033875	-1
-1.8631846284734934	-1.4784693722626694	0.11518362071572366	-1
-0.6789319613687349	-0.4980086004395203	-0.3081211576002479	1
-0.3918716600359028	0.36801322693485594	-0.22143007711373525	-1
-1.5510516744291458	1.2111349264965374	-1.6737210587720892	1
1.995129018791407	1.5251486393585596	0.1111495938468286	-1
-2.1777550572338167	-0.6017999076179542	-0.2392855631131838	-1
0.3134431437817813	0.48704619118279163	-0.5252712268465191	1
-1.0967712860043037	-2.819744783923891	0.4853491189065604	-1
2.121616996873174	-1.8136316746690035	-0.8477356509957297	1
-0.8421675465507177	2.2535745396570435	-0.4739011033745588	1
-2.190987730606861	1.4724814362219183	0.6074424975306889	1
-0.41582499731540934	-0.5134742080090152	-0.4255456197332727	1
-2.155646430798421	-1.5668786449626304	1.1332787576063892	-1
-1.271315607531931	-0.37347719646407235	-1.3990913447392657	-1
1.432149565991045	-1.1529771599898975	0.8024240735378954	1
-0.2276062547076339	-0.2956446967107399	0.014594511254338928	1
-1.43221519861653	0.8531691375348047	1.0204346666881106	1
-0.20924207146789617	-0.39547763615370946	0.3401704148659924	1
1.2498674464421002	-1.1575987324910466	1.1780232213592738	1
-0.1154795603978126	0.32565699742084836	-0.21129540382070516	-1
3.8117717171843104	-1.028256130687734	1.4122051796067026	1
-1.6678972161257226	-1.02847206037298	0.13908553994914352	-1
-0.44305134851148387	-0.2152502737912758	-0.05706019843026137	1
1.5295592201889285	-2.0458685887968024	0.3189020476216677	1
2.943253972304684	-1.5054629437879639	1.2278851034905691	1
0.5125361356836554	1.557724258544458	-2.2196705588534686	-1
0.9902885613500557	-1.9419677482176139	-1.4869538818969785	1
0.8053544686994902	0.8400087773206002	1.6281987466555443	-1
0.4735929502039417	0.15407442358573914	-0.20174462534741966	1
-1.0266374805531346	-1.7042414454452335	0.25842392800260966	-1
0.3109230640566385	0.529625976863821	0.09775013273849587	1
1.494890752338483	-0.5651179407063297	0.17034331831548488	1
-1.054601301078955	-1.268774765110906	-0.2532253550166594	-1
-0.1678505604617254	0.2962077017950552	-0.35637472881541893	-1
1.9365063183094517	1.4204080120597027	1.3267866683307066	-1
1.9943243313641976	-0.9220483041485462	-0.46879772887286997	1
-0.9853893519142878	-1.690974764521485	0.7415792558390771	-1
1.1592040531020407	2.3319365152770084	-0.3401834412994924	-1
1.6315992984805925	-1.261390849336992	0.6228139059506362	1
-1.7382527816073043	-0.6934526877769189	0.49848257966555193	-1
0.4234787875954372	0.5255942838970847	-0.05258026099337011	1
0.6107892501959961	-1.7850438557342176	-0.07060721555864002	1
0.33032148324343064	-0.4176129713393142	0.1727373811531016	-1
1.2521648948762076	1.5803611399515711	0.5435589723625506	-1
0.33440170914279643	0.34453130525600734	-0.1420370413411873	1
1.004981698794998	-2.163511044507375	-2.458454573274164	1
1.1902871839417648	0.9359675872379669	-0.566273417648494	-1
0.3367987904908498	2.3518036564987588	-0.8453677675144204	-1
1.3169169417956863	1.572726895276777	-1.200778781860771	-1
2.0749163024948722	0.42190097443825564	-0.9259724039820765	-1
0.3268636190436807	-0.27185811821384276	0.5052174151629883	-1
-1.1868521870557325	2.356047232423287	0.6824647275126674	1
-2.326816153090703	-2.0419695663765367	-0.7288015219014031	-1
-1.4386110550983773	0.5862978140283751	-0.7359450606533433	1
-1.2905337638033973	-0.8374938313562933	0.5817024616088422	-1
0.21101332582343102	-0.4894623259434619	0.24605330849057064	-1
-3.078132299887262	-1.8025046466633303	-0.7379759483535053	-1
1.6290974942047722	1.3213875618303883	-0.015918350670898654	-1
-0.5463012240265408	1.9734867247535068	-1.4479265149958587	1
1.1300071144179118	-1.9247406550459012	-1.0495489688552793	1
1.4975528122300306	-0.9035859361866843	-1.1846322796059765	1
-0.6022726063149705	-0.22770340184242147	0.1129749707306613	1
1.577905403270296	0.8651635321917637	-0.8374260834704836	-1
-1.418743487334739	2.024448486334851	-0.5413983746789447	1
1.2359223785687363	0.9330125740700382	0.4113942490997337	-1
1.7562224499301664	-1.6621344218428291	-0.9263118566315873	1
1.6454700441232324	1.3352675943910244	-0.17372177500592778	-1
2.1592378364327645	0.9151663565806267	1.7680884193507855	-1
2.4910393125627133	-1.672168374133396	0.420987607605876	1
-0.14105406323990494	-0.8451592232558591	0.5229417376868027	1
1.6245633656591356	1.0541897513794358	0.6208101800394693	-1
-1.2165277109168737	1.0121072011494023	0.017849394023369908	1
0.790114531782065	-1.4664855556231593	-0.14496795152755798	1
-1.7959871770885198	-1.2078836113650828	-0.6326371825254921	-1
1.0983505337039472	1.3126024133714103	1.163998231113024	-1
-1.5811790113461068	-1.6299141641164099	0.16774729725686965	-1
1.268143025594538	-1.7615939669603167	-0.21857816835380073	1
1.4248236886091652	-2.119595798112921	-0.2288361403354017	1
-1.4394528707408605	-0.8820683867354937	-1.2698816936443835	-1
1.570710614354274	-1.7552609980612717	-1.115572522353031	1
-2.294403093055019	-1.2875602254089566	0.0004277774078222229	-1
-1.595952234200596	-0.6041427160851298	0.2772573011849972	-1
-1.0387512723100447	1.340810659115913	-0.9622257696356629	1
-1.858948438802002	1.0959030804132472	-0.19854441428784622	1
-1.4670810904287634	-1.4675013382360966	1.7142051556945181	-1
1.1497251472504622	2.0082232621209104	1.544309819777635	-1
-1.166732736984267	1.756140968323981	0.5712540939257095	1
0.23411913842343246	0.6423770258291038	-0.4121217615565942	1
-1.6329590661420916	-1.756077555365624	-0.9603566837192722	-1
-0.4734622002196167	0.2286573912506381	-0.39611590689505133	-1
2.058822114014497	1.1904564624875391	1.3802393361283758	-1
-1.1158988315435736	-0.8794011639253005	0.3685019029081638	-1
1.5476636713885594	-1.994596811074323	-0.10966114570699695	1
-1.6126427329983917	2.4499724583706053	-0.24695330722616016	1
0.5145171095221012	-0.597713438764737	-0.11320877470451174	-1
0.4481103856327415	-0.19644153297918573	-0.004398761217915774	-1
2.145560195236096	-1.275967779961816	0.2379893475827602	1
-1.8430733454246355	-0.6287322957496793	0.37780356971225637	-1
2.082986322722897	1.194483466614002	-0.2852511279955762	-1
-0.3694424920593493	-0.2680281258859262	0.060089956156192614	1
-0.7419752831553872	-0.8429338542626739	1.194828885104052	-1
0.3568383769448747	0.19603353239368326	0.15158913884433778	1
-1.9790853380965148	1.4145091679305986	-0.4574439666341905	1
-0.5536540471277093	-0.6584579257261074	0.15551391046089588	1
-1.163877875612839	-1.376441513921419	0.5857144454944477	-1
2.0245212884294737	-0.633890589281957	-1.0684221281976078	1
2.4582632016920773	-1.3910913634081996	-0.9745350743222243	1
-0.31593306279196864	0.2650431950695487	0.09503155753906396	-1
1.1338670194241742	1.5355528820114486	0.7223042575788361	-1
1.8288222666414324	-3.5597272911516513	0.42228447773212197	1
1.6680464937953745	1.178258004033604	-0.582308216568861	-1
1.597544114389237	-1.3686872981354377	-0.8608479270622322	1
1.2298051592971762	-1.1993501850930837	0.3375238871757159	1
-1.8039146102900088	-0.9497983752190855	-0.537710204645357	-1
0.9923778612625735	1.6856983222635735	-0.9690069423058226	-1
-1.4074954136279445	1.4955344032113236	-1.5500482191046947	1
-0.9962902100550179	-1.2551890052335521	-1.249072500778967	-1
1.1673629606377096	-2.0551574559409285	0.8286800134117697	1
-1.07539796042206	1.0868510664251274	0.3973661660675327	1
0.3696039707959479	-0.7560881821062978	0.26491743079162905	-1
-2.6437445822789907	0.6311334241938513	1.4343334449283054	1
-0.630055241199897	0.1861822846024752	-0.2659643549208031	-1
1.0500907971643787	-1.668784033384531	-0.7999527238982475	1
1.9899935123990113	0.8982683594554794	1.2021778278345645	-1
-1.8432974707945684	-1.6930905523274502	-0.19547085989838187	-1
-0.7478100964117225	1.4409793522414742	-1.5848149340033055	1
1.431811793686946	-1.7459707240062698	0.31087736474473093	1
2.4375224283109227	1.2500769064156847	0.6416303007451127	-1
1.149250314783268	-1.71559255226641	-1.3023857033493391	1
1.3781731643713941	1.7687398997039379	0.4234683828709825	-1
-2.0641882360100365	-2.005680719244882	-1.1236102024578927	-1
1.5297158194697211	0.3857367430321406	0.10300632573605212	-1
1.1167443480383465	-2.7850177758408443	0.023656884118425335	1
-0.748315245872671	1.2501463338888532	-1.3276813612812715	1
1.4048425019712774	1.1479407300379625	-0.236107264572689	-1
1.7499252550142896	-1.4314090173210612	-2.2087350986135115	1
0.7721584420366167	-1.0936667176679014	0.9776290167545535	1
-1.271455817367129	-1.4655388535086518	1.2226236652183806	-1
1.3318170742899509	-1.3588898217057999	-0.09640127617637438	1
1.3726179822957374	-1.4012342362984018	1.7252633442800542	1
-0.28140970523921033	0.36566531607660074	0.25378542525937053	-1
1.6324950664798672	0.5631839206719071	0.09435348152617865	-1
-0.7961271593292758	-1.9289257653554583	-0.3292775479345301	-1
1.717591621802033	0.34392252180014754	0.6226020523551516	-1
0.43057512666108927	-1.4420321396468285	-0.45755585481740246	1
1.642699360107458	2.246350393790385	0.18634116027469524	-1
1.6586350637648288	2.3864694316701858	0.011546758913098249	-1
-1.9120951274199631	0.7541980527755756	0.9358726117404301	1
-1.7520521871854973	1.7791808320698157	-0.5919777064544351	1
1.473638537281047	1.4855165280304847	-0.811591821118779	-1
-0.520728990230022	0.7809255846092122	1.4633655192994708	1
-1.3548176072920661	-1.829164001515017	1.1814680566585885	-1
0.20134490437449065	-0.5054698641396085	-0.05999517870734642	-1
-1.9187908786344154	-1.256798880326966	-0.5591322260846618	-1
-1.0580190109268803	1.6830872624470592	-0.4389385930742533	1
-1.0346648703381405	0.9850974343687684	0.02356368533692588	1
0.2173043368995772	-0.521860709405876	-0.22216004197976177	-1
1.9260987799624516	0.927871853318071	-0.05899039368035833	-1
-1.757894669493448	2.1313013128919773	-1.8930499757338368	1
0.593474723924082	0.983321922315493	1.583403346794392	-1
-0.6865164152250977	-1.6178101759837418	-0.761810704889263	-1
1.7592402793288668	-1.6978925886352703	-0.4828023726749215	1
0.723035385765955	3.0044709817105537	-0.2672211947617011	-1
-1.4390928715555082	-1.696877561441086	-0.8166044086969324	-1
0.5651483791839588	-0.607658815213126	0.3164913322388782	-1
0.994152385999838	2.739103845850381	1.83179155641984	-1
0.3238021065586231	-0.39148534867319	-0.5485225295743674	-1
-1.3348681452878906	-0.9871978886314733	0.14368511179229612	-1
-0.5520066179707916	-1.6877131065530062	1.5142520998614335	-1
-2.207349468838594	0.3518212296568456	1.1292870505566377	1
-1.2529363557083764	-0.37280500527010885	1.7922636396478557	-1
-0.9328109219449336	1.322205273516224	0.9076559476637949	1
-0.4761077192726506	-0.10151202410605381	-0.04085827731880563	1
1.4886776104450372	-0.1902074985309852	-0.2638127245373823	1
-1.485595477970396	1.9980333404671342	-0.29001472775189163	1
-0.04482678194767438	0.12824010430521965	-0.0078065214119211945	-1
1.6213946800254548	2.72469381630002	-0.5422712834431243	-1
2.0994486182100394	1.252046105460115	-0.6541222812287234	-1
0.244020444361079	-0.7711852027218455	0.039544210813318194	-1
0.5454812819358434	0.41536153348791616	-0.183800345760989	1
1.6734802740110126	-1.934326482925239	-0.4635469275939307	1
-1.0535701655762233	-0.7883764235304396	-0.5411310031699362	-1
0.3842227322946079	1.4826722702178294	2.13639402810676	-1
1.1369298822076808	-3.109242326283754	0.8022636552075455	1
0.6713103938314253	-1.6026455032631302	-0.8938027180191255	1
-0.7838797171079929	-1.5068140229020615	-0.695229724374667	-1
-0.25924409347009103	0.24735936511939127	0.03316435292355877	-1
1.0869853448484657	1.0597022455153462	-0.8929629773649955	-1
1.1348040171874343	-1.4572689353337027	0.8115847237791649	1
-1.7732763865374719	-1.0109460295207284	-0.6840407603238414	-1
-2.7223831081093	1.2421869729148218	-0.33286006559807446	1
-0.6767837356618411	0.36616832690441353	0.15135008326155794	-1
-3.2231792553143523	-1.434705532265112	-0.5229563352964239	-1
2.0774987384709793	0.9138317156528881	-0.2560549460671605	-1
1.0302939995240823	-0.728192012056619	-0.6419175253765448	1
-0.8610053216917377	1.6539091890910602	-0.4564729837935271	1
1.8597602416153696	1.2368404656549075	1.3654798834550224	-1
-1.246619806516102	-2.5561761446481803	-0.628596298140676	-1
0.865426228531259	0.5871678132111467	0.8818232214345992	-1
-0.83367284839903	1.3649165937439791	-0.47759983595664174	1
1.8759929894087215	0.9912925653744031	0.21497242719472812	-1
1.829032135015697	-1.5086743802594835	0.5774863033479214	1
-1.3383449863750885	-1.8591674728464083	0.565344474465275	-1
0.12477820210211857	0.2068847009195158	-0.5749211031524551	1
2.0061074632823384	-1.6830767443288932	-0.42307685874965817	1
1.8827276594636793	2.045610434790777	0.42654582299504107	-1
-1.2284964643084595	-2.8686728217396387	1.2278348460872142	-1
1.7126237057669702	0.6783445062576641	-0.9247302333036835	-1
1.2718849980924132	-0.7744105100447294	-0.058488599207126825	1
0.3948435644645423	1.528177629018731	-0.7463813774485901	-1
-1.739007159437298	-0.8897962658448194	0.5376247965046558	-1
-0.9279089956595078	1.609481509333518	-2.9154144314103267	1
-1.4389698821038206	2.170326312866716	0.2187283450695309	1
0.8768056626123318	-1.4831315884847844	0.33943908824659735	1
