-2.5020509542502705	-0.28706704943711264	-1.4783695022765653	-1
-0.8814674467057557	-0.2343510780927115	0.19250948953034328	-1
-0.7097186829314619	0.16595979910101408	-1.692333564044666	-1
2.1554930887660864	-1.094894808335605	1.9625481830361053	-1
-1.192194530800895	-0.10623691753648677	1.5469740951514768	1
0.7031918153960633	0.2151201393541977	2.3733060245700046	-1
-3.2765377530594577	0.2724238917796036	2.330939075643648	1
0.31444136290536645	0.1714906674384301	-0.4349252406339873	-1
0.7377564796504275	-0.42010070092374563	-1.020916706818262	1
1.136149242233968	-1.0289170433793118	-0.9498390909772509	1
-1.9281905852525671	1.519783780071247	1.5891893035545115	1
-0.17883531872397573	-1.20657341581702	2.3472410252506712	1
0.9663987598592707	0.5096684070001734	1.925580109271699	-1
-0.3547880152408792	0.17484372208088625	-0.3874921217478577	1
1.0323748989416066	-0.45848324401602253	2.573032003279433	-1
1.737327088454304	-0.5613899561409074	-0.8871301091257145	1
2.804951620288298	-1.1206055053378505	1.2398981309256034	-1
1.4150005785441582	-1.0236513769662423	2.654879531056288	-1
1.306770097169923	0.10415661155452649	-2.370006248167019	1
-1.798643193609772	0.049597626198971685	1.2017019511769889	1
-1.450217739614678	-1.5420317284204257	1.4393996105273812	1
0.9667181377887485	-1.68038714010894	-0.7107009556294657	1
2.0548046763591343	-0.6079452325012614	2.18679266819633	-1
1.5391744708032178	-0.4399778006574601	-0.881747948863068	1
2.048510057681826	-0.4784290715471444	1.4319354508912063	-1
0.38736807106079646	0.3958248644756213	0.25907239805408766	1
0.04906011925093628	0.05119809005201557	0.707848280591654	1
-1.9016441679662983	0.1618701534879392	0.3439708204680849	1
0.8370338568639166	1.8978710726851595	2.9473096619332013	-1
1.5418460669554483	-0.49648081543069966	3.1230190757788456	-1
-1.8330081897901622	-0.46211435141560275	2.4119848058384044	1
-1.2423571708558152	0.7263497964864611	-1.9702989315734016	-1
1.3465299849494887	1.4788876481775421	-2.622849769910777	1
-0.6105555242343415	-0.18038889667376687	0.3756422064971905	-1
0.7605506599848814	-1.9774459687578632	-0.971395457515952	1
2.4342898128331747	0.3842123323444421	-0.8549672792035197	1
-0.6419589253890354	-0.45142932837806565	-0.7269391094754994	1
1.4896486140326641	0.9158603041845995	2.05835135755227	-1
1.3510313070721747	0.232962246848949	1.2298528630638481	-1
0.5620951268591631	-0.3978376346273387	-0.39515497434470387	-1
-1.359759755640348	-0.6194243744177163	-1.271910230369376	-1
2.897270115023039	0.7604910086988452	1.3152638970177426	-1
1.7678522528208742	-1.0223356550994367	-1.361651709425395	1
2.8488758941798245	0.16165643296551918	-1.2452732689765054	1
-1.1607775824511029	-0.616571525492562	-2.076293075476881	-1
-1.5522876761200102	0.005957020035312772	1.1041911980210688	1
-1.4909330457537142	-0.9917768080089323	-1.359033754798566	-1
1.9866901062948454	0.09337767418346499	-0.34099025298867136	1
0.441185703975989	-0.16722799993371884	0.7057446284629978	1
-1.6874289579925226	-0.8109945490938648	-1.7270281922569806	-1
-0.8547897084292151	-0.03428609050199282	-1.2537122002633607	-1
0.3506723573782255	-0.16852893716726725	0.31182695144633304	1
-1.3519787327758626	0.572487002738246	1.3142008939191097	1
2.345226475312422	1.0323657256179801	1.1936094371992458	-1
1.5761962293182767	-0.37045693470412727	0.8510286120044743	-1
-1.3305151135222038	1.0001902458389522	1.8636556397825814	1
0.9754519432378332	1.0289686840466357	-1.4507990078191642	1
-1.9152813439554883	-1.2480345763116214	-0.43831990764336726	-1
-1.4187504259912558	1.5356537983083771	-1.0937433114006354	-1
1.6636134914711338	1.2113620718739986	-2.128827131427022	1
3.399603198266399	-0.5634211229129875	-0.7279557490146531	1
-1.8569326459871212	-0.5279218816103523	-0.9632900115072224	-1
-1.0496071454573233	-1.5000590991246714	1.342458855205741	1
-1.6954439636974852	-0.2294829300016936	1.7774252152827743	1
1.0807458618998058	-0.3294203571529039	-1.6920403167245994	1
-1.1380724696616256	-0.5572691388720072	2.1177535790069846	1
-1.0555957214598608	1.0640422916277403	2.2475725345681123	1
-1.9920206250908656	-0.2949959243254837	-1.1090476936723783	-1
-1.3226075495866003	0.8553394402119322	1.2257006102310168	1
1.7885588680290256	-0.10586532090094075	0.7225484814677402	-1
2.9492335416058015	0.26134807779728686	-1.5032407223882023	1
-0.7468370059037401	1.6732733391369212	1.8357040231233726	1
1.3966470310270152	-1.0799385598965583	1.930744182859462	-1
-0.6966770219749622	1.0418133114939645	1.2980160468865725	1
-0.4232986936747183	-0.048451660446586706	1.7275702414111593	1
-2.327872001539571	0.08473492827919774	2.2825326157954025	1
0.5406485599759794	-0.32260060303279176	-1.7109668367686706	1
-1.286323682025758	1.0490952563735945	-1.2422659610870357	-1
-1.5449411367752128	-0.21091718766901543	-1.0856017209517412	-1
1.0856609041872811	-0.6634486716446273	-1.930470584854404	1
1.143620717254651	-0.26538078347271415	0.9373951160084023	-1
-0.5524358793072154	-0.20637017275965658	-0.41344007958779	1
1.3350989690481427	-1.0522709738101472	-1.165594520538866	1
-0.5210178850937994	-0.5030591096237192	-2.8085401339451312	-1
0.6949260034616084	-0.12003185913602284	-0.47751154247117455	-1
0.4094014057789854	0.47457359655767717	0.47577637485486585	1
-2.7306664521651953	1.089157909488164	1.1061987921150818	1
-1.0821445531539529	-1.3071168396645878	2.1909319454400618	1
1.6467949892674516	-0.07185929833021139	-0.8584890374014771	1
-1.4675918835602628	-0.3359381773380477	1.455465537319467	1
2.0338964103478663	0.37601489559228163	-2.4961769011217143	1
1.813113118743176	0.0994965615015172	1.2817959824843648	-1
0.7550291936973411	1.0867244520321582	-1.8554674832634437	1
-0.3512244636858497	0.2741349932477021	-0.42550233668827336	1
0.39327279708656293	0.25291581305708366	0.46113997240895066	1
-0.19172743540383552	0.2068078469321352	-0.2307518021218128	1
1.5735923523363047	-0.053716458029445406	-0.86736431947471	1
1.7553444295436849	0.8883668611659744	1.178561185971314	-1
0.5980099246716403	0.2801208428292829	-0.6578878402404249	-1
0.49554952622991355	-0.02236016013176113	0.39094120992468756	1
0.5334722447564525	-0.1348570124180122	2.5968452976889758	-1
2.09139818958844	0.24086399509692502	0.8020907888971431	-1
0.8582351848225834	-0.5699922308325995	1.4702772622434817	-1
-1.3660902301291686	-1.1946808621396097	-0.9676011247291716	-1
1.5067950256903213	0.0011982260576150817	-1.3646619099628094	1
0.4610534093666261	0.029322551438593497	-0.28683765507023645	-1
-1.03861434118353	-1.6254598246118732	-0.9510298337324502	-1
0.6403777201415897	0.8009804950174383	1.1304106011693438	-1
-1.51495453452804	-0.074170029342101	1.1441541765680099	1
0.43273347295513914	-0.5535688726682458	-2.2649731258051977	1
-1.2988186384170006	1.523486692901251	-1.516276731197739	-1
-1.434360409511816	-0.2894546957064477	1.3447871764458108	1
-1.2912293291021806	0.7952524870196287	-1.5126883095383175	-1
1.4729690372556188	0.8553274980344856	1.2491769604116671	-1
1.8945631763133972	0.5392264432113549	1.861308128134968	-1
0.7658661521421397	-0.27618915386589216	-0.24399380677478233	-1
-1.9103637462775727	0.6759041536376916	1.606958108692485	1
-2.2949810217765156	-0.7400450231028356	0.7431630485625629	1
0.4588603562388245	-0.042192243795822905	-1.9029460328654384	1
-1.291875229163118	0.3400139866394273	-1.1216902463497844	-1
1.379193746991863	0.510003828649546	-1.919609379615131	1
-1.9534180669604209	0.9571625946657245	2.7272082047231074	1
1.9459563306871002	-1.274514226197272	1.9434248147570257	-1
-2.1263999681451167	0.3233762199837188	-1.1733007509156457	-1
-0.8301631991456229	-0.5231723970731038	1.8022927208624795	1
-1.278960186078392	0.10671804959283196	-1.0792931925976041	-1
1.4128320489903403	1.1904514227381326	-0.763360918715344	1
1.091331322840024	-1.422181582026873	1.3581722452627543	-1
1.9376344916533013	-0.23083464953244356	-1.0294028426678234	1
-1.9035131192914208	-1.3618543554930769	-2.0576730957583633	-1
0.8754271901814787	0.7806989102683731	-1.1828769994551742	1
-2.4549524335167487	1.1283168395749232	-0.8572179699781313	-1
-1.3159780309004303	0.9634379146078	1.0881000947144295	1
-2.5267390296257606	-0.6242328722263714	1.3200240323828247	1
0.17526249542980427	-0.48165157617023224	0.42820176565928486	1
2.4382894744441685	1.4374058950774937	-1.087048102125723	1
1.2054884199224734	0.5534480287698486	1.6156596629188127	-1
0.4750620060133546	-0.21924276495990808	0.734939710444517	1
-1.6864588585152256	0.6440430207693214	-1.478562120190035	-1
1.625897059392813	0.18152281061187892	2.3005813896275678	-1
-1.1827519876891286	-1.4155387017903305	1.0322675124275873	1
-0.9285843754966813	-0.760897713639702	2.3080957145922327	1
0.99587645534319	-0.6828039174856323	1.205043811469415	-1
1.5456067391041246	-0.10359700654249825	-1.7986044752462864	1
-0.40700874637100076	-0.2439390398553939	0.3089771688292596	-1
-1.9666096834357252	-0.8644325954020481	2.161109302779607	1
0.13919377410032882	0.6683794728884687	0.7472181056642082	1
-0.8542339263905205	0.47988805335524937	2.5841000363929405	1
-0.9198164975133406	0.15179963706740252	1.5988915287140906	1
-1.5687576348954915	0.691011230633759	1.1803229653870673	1
-1.70902997665992	0.0068399833351878965	1.2643021706797846	1
1.104225667393177	-0.3794786673022006	2.9134824091465816	-1
-1.698396273132139	0.32023393705204084	1.1460759994733454	1
-1.3706768572236492	0.7399983925343251	2.3036635974030846	1
-0.6068231922315086	-0.37640025357817025	1.1555813486595252	1
-1.3277300390164137	-0.7467352676758403	1.765832578559884	1
-1.7198858532418186	0.057375676671491474	2.155853173207399	1
-1.6021515203678018	0.5845007469530937	-2.2790333067436017	-1
1.5371591183562854	1.3310382880340494	1.8755175540978817	-1
2.1563509097480567	0.1431505574936537	-0.8817598668093192	1
1.512019302372865	0.36891334861722236	0.7767980315928141	-1
1.4003403563710282	0.8036182895327182	0.8896664397430643	-1
0.9664408363374619	0.7119895128891033	-1.5758009244674709	1
0.39974992637141094	-0.21522709830790143	0.28923020757456075	1
1.8883196306769319	1.8459752482984861	-1.0806587728200832	1
1.0364256181019493	-0.3772739264912781	-1.3304318924951195	1
-0.2742044786917081	-0.27903053387709925	-0.2717756447304331	1
-0.7457589996780185	-0.1598720525234688	1.5538352199498329	1
-2.260003628656375	0.5176380060576297	-1.6526406107711562	-1
0.7212793618841649	0.07651866662699833	-0.3155457925984986	-1
-1.7283255307924499	-0.9652040965606867	0.6691853282141477	1
-3.2236305303537005	0.9296886211863309	-2.3227255474475723	-1
1.0757996214000085	0.30433125357161095	1.6782103377036794	-1
0.5141958180058364	1.2122247107843835	-1.5277947178284725	1
-1.1801467864648794	1.600429492829645	1.6594462441554043	1
1.4579698025764491	0.7841492710522228	-1.2295055474238084	1
-1.2046877946996377	0.34423374806701496	-2.1409137224737917	-1
-0.3199783553620532	0.40744772679813623	0.14386880754085318	-1
1.8581444855287566	-0.6698640991311084	1.1198041500996643	-1
0.7615720620984643	-1.1054652117615278	-0.6928167586350127	1
0.29247096749424883	0.5365622755056204	-1.572378077173908	1
-0.6617106241110846	-0.38266320935997244	0.5272956160231583	-1
1.9696079418049952	-0.2595723877267323	-1.4838118676497265	1
-2.29911983359005	-0.46029247213494834	-2.029131020818926	-1
0.8722758455856398	0.9676914833290688	-1.5607042191458973	1
-0.4844461159835658	0.1266910832717463	-0.6272032005175642	1
-1.450518284601948	1.294726448989418	-1.5450411241664748	-1
-0.3954637659901355	-0.03371290246016038	-0.49551917858410816	1
0.3224400374993612	-0.2918269355991458	-0.7241099271558809	-1
0.301980897965768	0.008268713728097116	0.2649610401621437	1
-0.45691663835057955	-0.2500044210365841	-0.6674282089233297	1
0.5172479106958908	-0.8811946156335527	-1.6514750632177984	1
-1.728469118557624	0.31011541820171556	0.3836747244470866	1
-2.128930743335378	0.17233432969475582	-1.6655846318791327	-1
-0.32220011892684625	-0.2718636224048939	-0.5637449148525788	1
-1.292605520999488	0.1261791424967171	-2.5641333492773697	-1
1.2433595390145307	-1.3668539820645875	-0.9855027129688401	1
0.8993527749759349	0.6828125980452966	-0.6844737098370468	1
-0.5724151679785452	-0.7790846839688195	1.6975332948499198	1
-0.7044625894917265	-1.6854522969716	-0.9289337724332132	-1
1.4600270176907821	-0.2905960719665918	2.287154806651947	-1
2.40741346820308	0.3043894571753357	-1.1474778485064407	1
-0.2799329296308727	-0.32405447650249286	0.9437013385344122	-1
1.1839893816852205	-1.0413107978245169	-1.7027266022256702	1
-2.7267982197595084	-1.0969603925584184	1.1273718419542802	1
1.3442893807142697	-0.5269422772027519	0.8725182104196529	-1
1.028553612047525	-1.8099367919902751	1.7156756789157541	-1
1.8075153761741918	1.106512412170839	1.0740866145863088	-1
-2.5905110922992556	-0.47479959288609513	-0.5042797868315445	-1
1.7200272827502232	-0.6730046490137301	-2.3899460483806547	1
-0.9510058931163242	0.23874935019976462	1.8185194951717307	1
1.9802599393951674	-0.43023611775057935	0.7447851322692016	-1
-0.573395221028486	-0.052612649455196614	0.37567501064851716	-1
1.4640259383387937	0.6243267331504149	1.3337445921248745	-1
1.9612187080283527	-0.31861878583312864	0.7886324432362177	-1
-1.3514119047768072	-1.1476683335118987	1.6905586027662076	1
0.5204302028882815	1.3764457545515776	1.003343031638165	-1
0.9624468440326306	-0.730161635764015	-1.1085560012515994	1
1.240008032488237	0.003582416628620985	-0.9875036452383612	1
-2.1777444932148584	-0.3379844798874605	-0.9512748226989927	-1
1.1518567624250065	-0.4969527338358426	-1.231357677533135	1
0.25073070397128283	-0.09795984994036326	-0.7661781647678882	-1
1.5346551103497543	-0.9643702574121576	1.1408664141940774	-1
-1.7892157230369763	0.2514856667923963	-1.0058271225337585	-1
0.17589827944035252	0.014787930932149598	0.5195290731605972	1
-1.0464936207411677	0.33305133430980993	-1.6564723929495562	-1
-1.272662201232144	1.5123500562739833	1.9989723413452223	1
-2.4831183057077597	-0.8705331789448417	2.4796628263501024	1
-2.0641084011099515	0.02640489593225372	-3.453704386391339	-1
-1.122645140633436	0.6292147817099625	1.6287889133093438	1
-2.6885592351313763	0.6818581012657023	-1.4291351467576225	-1
-1.2939561381011162	1.646916041801529	-1.3484456479030882	-1
-1.5551023571679272	0.7012465251179301	1.0352778060064833	1
1.4049082115142963	0.8474947560684192	0.8343360708217911	-1
-0.4151292723471187	-0.9270803635326375	2.141181452180019	1
1.5041549342322038	1.2874445534057803	-1.627658137354743	1
-0.8219267481713332	-0.13999773713237382	1.5128958821722098	1
0.2476910546795358	-0.5326193642657986	-0.29856496477298483	-1
1.7157746586708749	0.09596829997848685	0.614025474925435	-1
-1.3382062608001986	0.7346831453503595	-2.0425651153411724	-1
-1.537007894741508	-0.7700778050329438	-0.7458560084727914	-1
1.0635528124258673	0.08170425553746569	0.3382974334942684	1
1.2119773629584691	1.4223653107828609	-1.838671012449565	1
0.9269576012408545	-0.4227177718023997	1.3852869438085997	-1
1.1290090920320093	-1.5610663613902664	1.4442252336813572	-1
1.0844857696482222	-1.6716920809814473	0.5956522545299338	-1
-2.412774209516049	1.216575399535377	0.7716241057309128	1
0.3527678286404121	-0.0700965163425482	0.3232919317004974	1
1.894957387353506	-0.3919014469579534	1.193421225638787	-1
-0.9896721229016742	-1.3725495953455382	0.7930323934042554	1
-1.1666579433336155	0.6128013960616907	1.8025862215552562	1
1.298827774043044	1.3992145784694703	2.206627316287764	-1
2.671757709554675	-1.7390869283626451	2.7370522651750573	-1
-1.2835082325376017	0.9895610275141391	-2.9589511054998088	-1
2.7726405238893044	-0.011210101775526022	1.8181981165837813	-1
0.5471068374990259	0.23438449910084336	-0.630317222047236	-1
2.037776339676037	-0.2475233821349393	2.255882408284521	-1
-1.8755583123126396	0.35677028067122296	1.9523412892838188	1
-1.816118376272077	-2.088246752935611	1.029814008739979	1
1.7915399333763766	-0.645749892704057	-2.1264345020185984	1
1.762496287227556	-0.007707103017972701	-0.7754605389096569	1
0.2959508219641446	0.046545512485177076	0.4100703158546014	1
1.1067441546509664	0.6661709442182794	-0.9773139715870098	1
1.086882061398056	1.043418678046402	2.2102324683248815	-1
1.659359949437625	-0.009374005482205091	-1.5476383572874264	1
0.4166259669846669	0.21969694717661428	-0.41705776975206393	-1
-0.3296423546052037	-0.4340185617728639	-0.36552571217576046	1
-1.6082174320825873	0.7895416952713461	-1.3713469402051874	-1
1.7385461519900378	-0.07574108264613133	1.429567090163445	-1
0.3261847648365696	0.19783690233430481	0.7193108725594439	1
-2.272021814877375	0.570273198602085	-1.5840638281576287	-1
1.1720527358511745	-1.34939327723712	-2.1205775689904116	1
-1.3896279707109984	-0.3378175221703939	-0.4734022830038376	-1
1.0321724526170752	-0.021872246712593944	0.41564085324584854	1
0.2512775916504658	0.29402693566436433	0.45276328734367377	1
0.27283184354987106	-0.2239081758259229	-0.11827190578811558	-1
2.1006021817612397	0.42618359876997414	1.2964412501138023	-1
-1.2662637335037121	1.2114143528439616	-1.190383368301496	-1
0.25272599520344213	-0.3982750374485363	-0.4810078832625294	-1
0.4126168366730924	-0.37861151617963135	2.2897689349884036	-1
0.6655542780291489	0.02457943111073457	-0.7741479803333359	-1
-1.3982523733300554	0.4857839330396136	1.3204527207899823	1
-1.4917124353698605	0.3500296989199737	2.4828425465538526	1
-1.548840172321845	0.15362289423926845	-1.3682644722795236	-1
-1.2124217131334587	-0.8404241731866618	1.1815278132237195	1
1.8120131278812228	0.1549385310051471	-1.9791291163571185	1
-1.5539774823658044	-1.0393786698483598	0.9410310451544549	1
-1.4441270212414048	-1.7944353373641524	2.426161760092562	1
-0.717954758236879	-0.7605654375604831	1.3772791254226244	1
0.8792458330082618	2.083677832846135	-1.145315857664319	1
-1.7220940804697287	0.4648216237663751	1.414684925777391	1
-0.29978950200402127	0.14336936758258242	0.2588484773969083	-1
-0.5194553081325289	-0.010659256664641447	1.2656555526332578	1
1.650797480286023	0.38091994072329505	-2.14436864577612	1
-0.9194036473582419	-1.5314608942245531	-1.1339612417329512	-1
-2.2537852287747837	0.1280360318780388	-2.122646238853033	-1
-2.23771926548321	-0.06547986597808526	-2.028631289955382	-1
-2.1138731443341086	-0.5229218566551163	1.2152470104496769	1
2.3594711131123103	-0.2024942247368975	-1.1942148775030539	1
0.24047550130208048	0.017781347763309762	0.319531964727347	1
1.2859096910721528	1.7847596432162551	-2.949810935828629	1
0.7858174735071547	-0.18395937591080455	-1.5059714962222062	1
-0.7505295057563243	-0.21164339250027273	0.20425394871603678	-1
-1.511092546396683	-0.853920945519382	1.2339146854661955	1
-1.7689373147138814	-0.13771398361089013	-0.7962506702966752	-1
1.5576981219673	0.44327495052214466	1.5772165906509208	-1
-1.5735377908286665	-0.5287447770797825	-0.7898202782301996	-1
-0.29878933777288513	1.0163528057064288	-1.1764485627462689	-1
0.468215302043293	-0.251855836083082	0.5600644046709045	1
-1.802829056838582	0.12642964227483633	0.9957152954947439	1
-0.31949108306287444	-0.4212369105912097	0.38384913192091163	-1
1.4154632268355096	-0.7229921221599062	-0.7250453831705108	1
2.3209229657103383	1.5137358153734937	0.8437922756603666	-1
0.7094729419131042	-0.006136216992808397	0.22563320827783057	1
-0.863824158127358	0.7002725821538	1.2630538194268048	1
0.722075239589256	0.3766437996381007	-0.5636591503184121	-1
-1.5938850494824102	-0.2614457382220791	0.8403990613937614	1
-1.3704955695324705	0.5178940155963438	0.7249097500811013	1
-0.9123764557097298	0.2329450726394402	-0.5549013847093833	1
1.4431785991874637	-1.391402425217299	0.9714384394653912	-1
-0.2494621672376833	0.04517537856210831	-0.2437655621497133	1
-0.45089829552474464	0.3953758697037254	-0.20410667432809695	1
-1.8972983139628259	0.5349552446566841	-1.7215633031565432	-1
0.8170815628241155	-0.5020049204579741	-1.1335155968010548	1
-0.40776572179809767	-0.3107471847330816	0.39974796399196455	-1
0.48456060287725156	-0.010976960830636335	0.48312735291036635	1
-2.018643597552152	0.540446482709562	-1.3753735927438175	-1
1.055708724492639	-1.5154549239653134	-1.198846731932028	1
1.0061092217791703	-0.81178892253778	-1.069362740714363	1
-0.721782131989658	-0.869200173138292	1.430433749132487	1
-0.8857767457681283	-0.7604630228715965	-1.4122259976065148	-1
-1.6645553298940534	-0.5481185012768619	-1.5833851414459617	-1
0.6537959371514401	1.2407773508373965	1.8823383592413814	-1
-1.7953537160158959	-0.5998198451499237	-0.8737755563352533	-1
1.8395178479358194	-0.12788566191153783	1.5770607298220138	-1
2.7595198582908607	0.2464018358677223	1.709954241338032	-1
-0.6753050739267247	0.20162965022635726	-1.5590990393631805	-1
-1.1030806929364203	0.1778239955009975	1.600768466220849	1
-2.0482749551664003	1.1533714132219892	-1.3728114770885644	-1
-0.4162523997601202	0.6872424216540354	-0.22395756781970735	1
1.2697781248686857	0.4419618859862999	-0.9718137163616858	1
-2.6689306992963466	-0.48048096165111975	-0.602216857656097	-1
1.3527561113869515	-0.8707785225583866	0.7484590975003474	-1
0.36542036183544285	-0.19216083719455299	-0.5108318626219601	-1
1.3912401372278937	-0.29175831517922235	2.237550435340886	-1
1.0492575222256957	-0.2925596156909147	1.9515145289622948	-1
-1.3922357656690967	1.415697440738952	-2.764442207562312	-1
2.107752660863632	0.942551712379567	-2.312405197638133	1
-0.9468672068296462	-0.7667005346807743	-1.6499857028642084	-1
-0.29277736576787533	-0.05520619319329097	0.6766146859882045	-1
-2.1718721749896677	0.7649690426028004	-1.420184519008691	-1
1.6273427730283296	0.32456410190952234	1.331016535082063	-1
-0.9715286226028813	-1.2856059515377338	-0.8958531341397242	-1
-0.9633911653892959	-0.15695033323248922	1.9148070057834479	1
-1.2940719959580724	-0.8816435812812515	1.0155936586121632	1
-1.92227610821029	-0.7168771343756319	-1.071624175510449	-1
0.6674063399312594	-0.29269457513922287	1.9731693115779025	-1
1.6143899174749592	-0.9238415900902427	-2.218355950600653	1
-0.3438581023716982	1.0646587594841086	-2.3582886909719596	-1
-1.8558496983732073	-0.9371323001018464	-0.6152456020048038	-1
1.0462993250712702	-0.3301951081600919	-1.5933625885020768	1
0.4209329541739941	0.23258765144778157	0.3399772145841675	1
-1.1994166311015673	-0.7883576587537929	0.9332094412157318	1
1.0885528024838929	1.3387166244597102	1.505266212846323	-1
-1.1518666426311786	0.722997874167736	-0.6981711362502798	-1
-1.6743861284005115	-1.0233966506364582	0.8880402311894358	1
1.263222311644819	-1.7051463850644906	-1.3398796710965968	1
1.5530946164282005	0.9090845583498107	1.7057213109246132	-1
-3.3470317344222367	-1.242431444052766	-3.1653267425153526	-1
-2.719783645227052	0.5546188426414796	-2.0254341457392666	-1
-1.793111908140659	-1.324369031829882	2.2192663181810954	1
0.5192535207898658	-0.26703282475096185	0.38373871018381045	1
1.8539555988405547	-1.9660293127643549	0.8565303495885941	-1
-1.961999092534358	0.0348882189894935	-1.9109066496330431	-1
1.5298374523757006	-0.40090214105568606	1.8996031861031117	-1
1.6312839510643948	1.0089957791751496	2.0111779129095533	-1
-1.2472643069269147	-0.41293757434524275	-1.5193688279399897	-1
1.2110828915987282	0.648857441073172	0.4833273310278483	-1
-1.5728900831186885	0.7995697454573563	-1.6134841390218124	-1
2.680839987408578	0.10349194562773378	1.7485525615632511	-1
0.9691951207497551	1.247746565893309	2.3206725983673517	-1
0.39871471377007217	1.0447766773707394	1.6922387429191883	-1
-1.4729405563276883	-0.5866322595450437	-0.914059431269688	-1
3.067000153056877	-0.37497837398600176	-1.5472420619147407	1
-2.1272208373992516	1.0471887625046434	-0.7192919731827107	-1
-1.3598441135454749	-0.450175307955644	-1.1061583695386672	-1
-0.46757651193817173	0.12000658683001766	-0.07003240660081365	1
-0.8133869271749744	1.67275731429896	-1.858849466524707	-1
1.8009294675044432	2.4531359563419777	-2.673020284232277	1
0.3745659890085859	0.24140334608535646	0.26985666544627046	1
0.8171517472452128	0.7909211090409318	-1.887734113124539	1
-1.067756170787951	0.334315767843615	1.8485086064377656	1
-0.37053660049878756	-0.39314394458077356	-0.18286988581476646	1
-0.9531394411498456	0.04892032168613492	1.598676261192991	1
1.254642304294564	1.2983068973115024	1.157873219603643	-1
-1.6452038327253093	0.8039953280597857	-3.5495490739735587	-1
-2.3298458295266604	1.5619679629975973	-1.220053361750542	-1
-0.8249099567609846	0.5950424352470021	2.065356572122133	1
1.175291192657516	0.7649250212363741	-1.6529865259272953	1
-1.0932140400744625	-0.06406720840997791	-1.3814601013173549	-1
1.5428498973662264	-0.34936108965233625	0.2898301186860126	-1
-1.7626963969217155	-1.166529716703983	1.1891032937338062	1
1.8208082390871052	0.4415695870776542	-1.2965930879276495	1
-1.3494066634617474	-0.6401751144055172	1.049108006325951	1
-1.084363203567039	-0.43570603762234994	1.8010536511509487	1
1.8554087703953304	0.45653184184936946	-1.5181057917973497	1
1.2441473511816554	-0.5266924899656219	-1.5557366927059173	1
0.8199275300873117	0.6718017203183853	-1.2254492535630954	1
-1.979459043481811	-0.8340097816888605	1.5830006015561486	1
-1.7812684102018215	-0.8004271310322558	0.9506908482513696	1
0.6126841319491426	-0.37829278405437033	0.21157748078966476	1
1.383719904082741	-0.8850240338827687	1.4352186062268357	-1
-1.0987908604043268	1.056383161582976	-1.675908221121192	-1
0.6015761003398179	0.911324527232499	-1.5926649144072649	1
-1.0423256297754007	-0.6321036172892052	1.9825676122844407	1
-0.9712989478744295	-1.3680006011553578	-1.3129315466628824	-1
1.984714538151274	0.836673693402376	-1.5439989134254433	1
1.6615744629047802	0.8144362215689468	0.41053058460427927	-1
0.6612752941894209	0.7686182628042814	1.4950556100161325	-1
-1.4881625357215889	0.2811993384904215	-1.407198135277506	-1
1.4820010999989723	0.06871363083174098	-0.9137227166349291	1
1.8984460473834064	-0.8024996093099461	-2.237520027038227	1
0.7537092668916462	0.29259308910669507	0.48781146092100824	1
1.1031095610321158	0.8432441770482056	0.6073266441166099	-1
2.008390171576738	1.0254102017739963	-1.3379589494351414	1
0.746751996210754	-0.31624178133365854	1.3337377685742873	-1
-0.5232116354153739	0.10002924388153878	-0.2203992816539401	1
1.0350634397554412	-1.0138920350295073	0.6004487766163094	-1
0.44916495260004363	0.15344515124947977	0.7929127643471686	1
-1.4920630750889516	1.6904563714499041	-1.7725265664546783	-1
1.267602205307625	0.49811891831209043	-2.302882573499486	1
-0.7213569018387772	-0.46185991262518605	1.5316058187672317	1
-1.844394641791788	2.617622323051527	-1.3872209638272548	-1
2.104894836057366	-0.7398043986484703	0.5939761374143386	-1
-0.9084549107600423	1.2946104245792407	0.9927644501318773	1
-0.5158632835372243	0.5650210569818847	-0.5919440352444139	1
-1.572638296369516	0.07786816783098234	2.294353602872941	1
0.7398981336583884	-0.8925488629352165	1.648086667104089	-1
-1.4853818071328972	-0.26226280015556264	0.8576936085588115	1
1.6506227473422808	-0.17952984577550657	-1.2152957829705417	1
1.7910743403708116	-1.1677501979623701	2.2129397973658445	-1
-1.8157303816554102	-0.03676812391967041	1.1710779881303224	1
1.5343691105054855	-0.5788713220384178	-1.2091252317245695	1
0.688177816017869	0.41911710850298783	1.8178638098387172	-1
-0.862514290739626	-1.3298409584008022	1.9427944004166962	1
0.8001687517845936	2.0030699339048446	-0.6651458538563977	1
-0.17358469063494647	-0.117047652028145	-0.304358491453496	1
1.378475133329467	-0.37574904227765943	-0.4855890483788261	1
2.0873025732228414	0.500519931396137	0.30792277444459415	-1
2.0363404828195475	-1.4433948149213904	1.9981694449212417	-1
0.7187180635321705	0.38285618854195363	2.059916054718519	-1
-0.471793306363338	0.22475887681167342	-0.6353820536580355	1
-2.809748186345823	1.5547096482874714	2.019790613519173	1
-1.5875524748069205	-0.7201387464439009	-1.5110104220466238	-1
-1.5023051323740324	0.6002632067657606	0.8978351729034459	1
-0.688266491074971	1.1016060584497858	-1.9505874013438422	-1
0.9138918234235774	0.10987974012390747	-1.2048529526787695	1
-1.9319521224549836	0.1925182994491672	1.2464237935829114	1
-2.0790663968750525	-0.9320202096916796	-1.2827612463957387	-1
-1.962204506455645	0.3208634232696579	-0.795686952748759	-1
0.17371371094268473	-0.4975590381123494	0.5824021177825721	1
-2.1316327061634883	0.8405794334705368	1.8989458130807977	1
2.1378092962237947	0.7761267721349894	1.6229984068851184	-1
0.24418731094979929	-0.0852568149386206	0.4406180287338806	1
1.9970488996988829	-0.44065727990155623	-1.1125855184342457	1
1.6111300320135102	-0.6461218379317768	-2.2956937241051203	1
-1.1173873203443447	-0.7758317741485485	-0.7644853189666934	-1
1.9041881283080835	-0.24306430837534077	-1.479541853053325	1
1.1905651361541354	0.4242825511958354	2.1434960819539017	-1
-1.70587622677578	-0.4080402482527105	-0.6265876159965291	-1
-1.6307644871634144	1.4599980151989966	-0.9358996427764574	-1
-1.3110621836513021	0.21517047258234956	-1.9151137755635859	-1
-1.3027605033795528	-0.34627691952785955	-2.3928311224667698	-1
1.2201537212859512	-0.01327029853271606	-1.535997552308043	1
0.6038509555947842	-0.4982359757517431	-0.1457824557766533	-1
0.3286271567265488	0.43635060730064634	-2.2219210982648137	1
1.2102942234576468	0.05276555037468126	1.8838120421710833	-1
0.6901051551803915	0.41844594827597803	-2.017912467034862	1
2.1169210277365766	1.1656203053880556	3.329570347826026	-1
1.4692048511658267	0.9616369525303039	-1.18443697316422	1
-2.875850439361703	-0.2210503434440313	1.2760120419036427	1
-0.7700193532993069	0.2578308136993193	0.49426589458048986	-1
1.0372812586423465	2.132432033844749	-2.391847335473975	1
1.567828623001521	-1.0977337056686556	2.2976680751805865	-1
1.629620804355685	-0.24688671210106508	1.5052136012336075	-1
0.8739062877586052	-0.1649943908698977	-1.7179672789402969	1
1.8023614555678575	-0.8598398955517471	1.7162002119428834	-1
-2.4072224710029126	0.34568146376621095	-2.716949221420478	-1
1.039411825395162	0.45379958495955725	-1.3817642045184462	1
-0.9046772458488498	1.3763537148793157	-1.9370775914405138	-1
2.3834073344008133	-0.8540828821963902	-0.8975883206580959	1
1.3550375083145727	-0.15511747856636932	-1.576579575027326	1
1.2895858098443682	-0.14833385333183488	2.2620585938820916	-1
-2.285138540177152	-0.6041474849126507	2.66107333322968	1
0.5953578188695567	0.01591477225331208	0.626058841919992	1
-2.8567328120011566	1.7673583923399165	1.3752648558155796	1
1.8112085905415345	-1.3464909183965887	2.1823640266039575	-1
-0.6354747212559596	-0.8371103699796519	1.3457671669580697	1
-0.35896720533855947	-0.16895171217119453	-0.16629002817779082	1
-0.6914030115680914	-1.2604471875121617	2.363771705362933	1
-1.10442922838006	-2.927713890762707	-1.2769817410196844	-1
-1.6447164308398556	0.256965152186368	-1.6233487873178871	-1
0.8137964781164175	-0.15339345120374304	0.4353377959283905	1
-1.9238109449436909	-1.1719263514866187	1.3673903627712933	1
2.056631149025142	-0.08177577223694821	-0.6890376249947627	1
0.6794478106236831	-0.9814667057636776	1.3661550359895454	-1
0.9936623066021313	2.8638902419524697	1.4493794101220074	-1
1.9313582156537112	1.265262088852868	-1.179589962732287	1
-2.2693665441623545	0.3798712888227645	0.4965840857117069	1
-0.5977447756367595	-0.12699498033339787	-0.2204708027081328	1
0.9970882044995517	0.039144587641193336	-1.6944152170879112	1
0.3587250331279875	-2.2022685107788393	1.4723376241183848	-1
-1.5336435076789507	-0.37370526695154144	1.1139475899987032	1
0.36173995152616817	0.39249630485145376	0.5001840274068167	1
0.9822334695637613	0.16717418302360498	1.3761004993513353	-1
-0.9425341407991944	-1.3895214193153649	-1.5071848987126102	-1
-1.321828120939192	1.6538527041051159	0.9869268122234462	1
1.5987966580570705	-0.2152611142673067	-2.4279869352167145	1
0.6151419823823313	-0.007129996318421547	-0.5192194592259786	-1
1.9221715902452516	0.5721915741582523	-1.5441862468353182	1
-1.9439692196212783	-0.08925169823196177	-1.0062844214410356	-1
-0.6760856803215035	-1.5300133642752969	1.7202151964771286	1
1.966528543015944	-0.28590966782164046	1.4104937152912917	-1
0.8588409538427317	-0.2530928453850793	-2.03255276651932	1
1.4902298536476968	1.7537674695820311	-1.7004162960665241	1
-0.3796371835641258	0.062266875951990264	0.5962494517917508	-1
1.1530827262498744	-0.6754628571141292	1.4482705680250902	-1
1.4366350882873882	-1.3120039084741322	1.4589005086150155	-1
-2.5581134968920956	1.592033981046895	-0.8569514301355347	-1
-1.7188957004753584	2.1392248757828547	-1.953345859040378	-1
-1.701661895633047	0.5465709521918046	-0.8050369726776391	-1
1.0719645322512275	0.1622305723554213	-1.494774602618385	1
2.326360194665433	0.7829893995610528	1.0472233025790405	-1
1.1758482292845174	1.9056788005557377	0.9065554353857679	-1
-0.11949579720626849	-0.004538275780548201	-0.2720819230000582	1
-1.5010395232521576	-1.0315123887963644	1.7427226408978627	1
-0.9915885359072173	-0.41080682128127366	-1.3072533225783542	-1
1.851402966637457	0.14760171021242255	1.1899466962097833	-1
-0.9611351192266032	-0.21115207412791742	1.7591677027593093	1
-1.2203458068893382	0.10077416192056517	-3.087650214677139	-1
-0.9848930914893566	-0.11269728475856416	0.856035923990773	1
2.418294952115902	-0.17310027991302032	1.5933148025393118	-1
1.1463508580528434	-0.550504375892395	0.5070476556365777	-1
-1.4806320390156984	-0.03628080604778924	1.409712185911065	1
2.1315967433517597	0.880786142219993	2.1307320206633107	-1
0.8491987650612413	0.37555813834904606	-2.2043915957927935	1
-0.6619199879682536	0.09066445405921375	-0.40239704836200557	1
-0.7040298685183138	0.06049542093401861	2.2495527652504212	1
-1.4473342541095562	-0.341759711084221	-1.2587816244734096	-1
-1.4744013363935693	0.0394794118459181	0.7038923530761364	1
-1.6653119092245525	0.6510763501445103	-1.1317591982665722	-1
2.8078222953526213	-0.34254144350882965	1.8075983350313873	-1
1.26518323175792	-0.8792885167133673	0.9610513273329713	-1
0.6488015425819811	1.1650482376956315	1.1934121539710547	-1
0.1523800902191763	0.15011555284308084	0.1662161774074419	1
1.9330510993087495	-1.0091805879356563	-0.7130494448337926	1
-0.5577705228065567	-1.3906429045382218	-1.1383176746872217	-1
-0.8262958073221758	-1.249451511948558	1.387306908224038	1
2.1416147427066803	1.747483167057867	1.3998720111260043	-1
-0.8342673044389001	0.03370747276545776	-0.1383085617103311	1
-1.7953365718841976	0.19575311818640917	0.4641872974870044	1
-1.915732450563188	0.6671107962020137	0.5544127998124653	1
0.7226981116216549	-0.7073512581356054	-1.499541092016568	1
-2.284764035480322	-0.15650184400608322	1.0745742570959196	1
-0.3743312662394645	-0.2055240865706114	-0.4337599393478045	1
1.0553418852413212	1.1238707389962765	-1.3542069555413114	1
1.4462250426268513	-0.13296367050259278	-2.326063316169442	1
-0.830778445437251	-0.11541600894710224	-0.585743352996788	1
0.863241649911139	-0.5373172165405149	2.0236473800431467	-1
1.1930564956204435	-0.31423785172290825	-1.0209344229563333	1
0.2442930373072931	0.09936989834812837	-0.6034454024558252	-1
0.7641940483742089	0.8749217230243463	-1.8787133049721267	1
0.6394571767185833	-0.17642435509259005	0.3913832636583349	1
1.4034003698690736	0.5634553226906976	1.252275967976467	-1
2.4630434788972653	0.8303231394296269	-1.5611587841835253	1
1.5852615354067368	-1.0886913186568294	-1.7645099051917237	1
-1.6711678996729127	0.05898434765255807	-1.2854071246562642	-1
1.521733345254482	-1.016306537894347	1.3772487928041002	-1
0.22660261792383546	0.10963847932947152	0.57325840569342	1
-1.405761265074585	0.7082350217846178	1.2215871372354068	1
-1.9961186650990914	0.546341968498388	0.39338671239258377	1
0.7738838138473497	-1.4016694742307836	1.3267250213355228	-1
2.0697760690747513	0.1793719914445252	-2.269814230676416	1
-1.9984379372376244	-0.6761445642671797	1.359298315442956	1
-2.2445289691040045	-0.19451809059978153	2.7426242579526763	1
-1.2375367694889365	0.16901848178267617	-1.6859365707110179	-1
-1.2504624909282847	-1.030694329747471	-1.0143288944975148	-1
-1.323296549852127	0.45738483141427655	1.291120451319089	1
-1.0251481514179814	-1.5028693517588232	-1.1884123154151915	-1
-1.7926510186879783	0.6303829855765132	1.3550167404561806	1
1.9923935239879738	0.9891260515331983	-2.0642531763641307	1
0.8500273588778566	-1.8023265076243977	1.351277960334712	-1
2.0024358148945813	-1.109639628233165	-1.6266803396216138	1
0.20609430468867052	-0.01296092267689526	0.4694977091836928	1
-0.6558004753421034	-0.042711670171285895	1.9870281907828646	1
1.7782086728665831	-0.9179327624330587	-0.8486064904629211	1
1.6073954363735128	-0.832015217023886	-1.8063991774923556	1
-1.2250081473218861	-1.2034796269651888	1.1311331314404918	1
-0.48576736378312724	-0.2136267294547273	0.38996835902069593	-1
1.18927536755214	-0.7069544701181463	1.9676357425575266	-1
0.2698777251202027	-0.0004130337165154261	0.30639062557990904	1
0.40504041254822215	1.9181833744461252	-0.9178995038394021	1
-0.6910561303525802	0.10820227318767746	-0.43090129659257403	1
-0.26270797689590236	-0.04057668134175334	0.31393561995669733	-1
0.3185445422144813	0.01726896807878714	-0.2777558705959963	-1
1.1492139159741228	-0.5466287217029854	-1.3358438705744264	1
1.8686806638155904	-0.43871110003238595	-1.7682568229602387	1
-1.276984360444116	-0.08603139483507598	-1.180066674569774	-1
-1.6540985203283922	0.5275324258374761	1.2439638092942065	1
-1.5654574917764852	1.413312695991655	-1.4491524024790186	-1
1.7710330718252778	1.2597526356016844	0.7238380000558244	-1
0.6844062166642094	-0.2880995723043988	-1.4233072958511832	1
-2.0222419539193406	0.018839115683178552	1.5298259546968878	1
1.5406578835998044	0.17978509965175793	-3.1684729892606995	1
-2.377651844213298	1.074457728925253	2.23209057589002	1
-3.0058483188560152	-0.162465714249314	0.9152821352460045	1
-2.451764457339467	0.808819545360599	-1.1553015832665932	-1
0.6048324664295356	0.8573639207339636	0.9169714856828697	-1
2.2439997434001957	-0.9732263591484319	-1.6590965422122974	1
1.381991873319817	0.08668219808205074	0.6297189721015091	-1
0.8120584573602916	1.0358029509932316	-1.3732731487074539	1
-1.2460216490362956	-0.9638938999828025	-0.9185294056539608	-1
1.5810957265842671	0.7810102585360117	-2.007726455219426	1
0.8701706567947287	-0.6283262324627467	1.1576783937552546	-1
-0.9301275293092724	-0.8734380300271374	1.6815889442759115	1
1.8846831558928507	0.23525164840572296	0.7748123222056452	-1
2.3080791958792335	2.4066752752247025	0.7495853465308466	-1
1.331155965697973	-1.2481103009980457	-1.2328902589493864	1
0.5796598155716643	0.3384712092539648	-0.5914801088543381	-1
-1.0986322331720944	-0.22845798395105474	1.1457289698909348	1
1.6029035588255387	0.0730512684996371	1.0703477538279407	-1
-1.5114203881401496	-0.6778678210430424	-1.8795100022370574	-1
-1.3261715147241981	-0.17045225718511858	2.396185626784507	1
-2.1157778621677115	0.08706464736335907	1.1476544742192893	1
-1.9898937302396267	0.9836804765238135	-1.9873936304140614	-1
1.5677745232893727	-1.0836417013188575	1.497670201418616	-1
1.8695345683329643	-0.25195877278008066	-2.195486279028415	1
1.086787905780524	-1.7804061552393244	0.8747159276008589	-1
-0.6581941435509268	-0.2980058738922887	-0.5867474375727972	1
-1.4219485652162838	-0.13269882228966062	-1.5448412365428443	-1
-1.3158941408304967	0.4797177055437203	2.7483527121218376	1
0.2809283378309666	0.022048864724330965	-0.5704991798384785	-1
1.8528709592169053	0.25457759493179216	1.2702860095412012	-1
0.5531276560223081	-1.2468053820930318	0.5232665654294099	-1
1.8129416467695252	-0.10568016316449669	-0.891662592387514	1
1.6400206794864076	1.0503588346064663	-2.040095595596964	1
1.9949163344105654	0.793250893063888	-1.4110535984866355	1
1.6519323524579077	-1.4805869167659473	-2.875663665117047	1
-1.3599695986261366	0.14146432552577048	-1.2427803672925684	-1
1.51462087479589	-0.5874049064538656	1.2956236033101574	-1
1.197148008031515	0.29318306123564636	0.7703543589435332	-1
-1.2969449795039667	-0.23318873857817649	1.0415118104207832	1
1.9847344107733464	-0.19658080251647753	1.7203660296747516	-1
0.8211070428869816	-0.2610522892968573	1.5572144310447458	-1
1.8547810631441175	-0.945415561460631	1.4921825389822914	-1
-1.2607610143891332	0.034145028471519866	-0.6696970327059556	-1
-1.41663699310187	-0.9157186125215365	1.322344859595521	1
1.787873958839911	1.1222923032819652	-1.028201455600786	1
2.076316132190363	0.8357202072403519	-1.271455809020359	1
1.924647759562311	-1.0030552749851975	-1.921554711981235	1
0.8416959562958859	-0.03564542987774685	1.8767499824738523	-1
1.196842079088907	0.5476750645271927	1.305710791700892	-1
-0.987124108406972	1.0679964255669618	-0.879264045072278	-1
0.8256860944691442	-0.45735444238980905	1.3710544076123359	-1
1.5134950179006128	0.3411481187238494	2.7180493628659637	-1
-0.8508886901555579	-1.3185277593510287	-1.791802160635716	-1
1.7432839662812452	0.7087425301767665	-0.758726883661758	1
-1.7730588254498334	1.7816667228716019	2.687450722057456	1
1.0138841718048202	0.273494660140036	-1.1882162425329226	1
0.43157165993556323	-0.25478878127793353	0.30301550107018715	1
-0.20043422341137695	-0.05356103227946635	0.1642941615427851	-1
-2.2182281956126184	1.8358411850321208	-1.4604801919633525	-1
0.2794293143902507	-0.2536068089834659	0.2980980414731542	1
-1.025907466914977	-0.4744711059987268	-1.3928286180323528	-1
-0.9135990444956152	0.24971396602804213	-1.6762508693654539	-1
-1.028958773709536	-0.6119035528760168	-2.564966651422287	-1
-1.9083959823812209	0.31132315510362224	-0.4508657057509045	-1
-1.5734136838905188	0.05873869414062555	1.1879077799380393	1
-0.6264302484422506	-0.590744393560336	1.4518750330469359	1
-1.213242866486557	1.4615736593379036	-0.4501242592117681	-1
-2.158313585918398	0.5135654058006444	0.8182052291161748	1
2.0744529577272077	1.220553859975036	1.2493614246085782	-1
1.259506000526648	-1.0075365301607213	2.411815379472272	-1
0.3068007890643542	-0.0305087595918568	0.5030368072492699	1
-1.5125203547036812	-0.34932518983667077	-2.462899892510655	-1
-1.3272569414181596	-0.891429397982805	1.9196057255093242	1
1.1589159864957164	0.6210344015614158	1.2437912029164861	-1
-2.2330157343666697	0.4618638617474009	2.3418716998317417	1
0.9130102837784313	-0.017092566018988023	2.1459101832195078	-1
-1.1330832909799826	1.4028998027019022	-1.1033916441285054	-1
0.9117157120339379	-1.340391306378736	0.7366144509395642	-1
1.374780466604102	0.6655620443590559	-0.5933953644382312	1
1.9936770582923373	0.1857282583040437	-0.8448537906374185	1
2.2605628324947347	-1.0274025707205563	-0.7152339568425936	1
1.0866909399719318	-0.2387625057543358	0.844446938352005	-1
0.6418422828056456	-0.3411445434838164	2.4502234928541795	-1
-1.5898502821294151	-0.6169849338145905	1.516998655474767	1
-3.19444168294125	-0.35631352524077553	1.3808731648413057	1
2.9199417618251697	0.17429005039291634	-2.5630218265707745	1
-1.3480125789197173	-1.087840390469207	2.2972407241332307	1
-1.5055343477553071	-1.4951452549892492	1.719049540641439	1
-0.8124060118904037	-0.5279685300807756	1.376121890446834	1
-1.669431074746484	0.6280644975854228	-1.1549188559113786	-1
-0.4526409842080476	-0.060791778970538626	-0.7264080500612367	1
-0.49893762436574074	-0.8520510266760086	-1.5845914168918542	-1
-1.2619118919215593	0.46529050054529447	-2.095299439963751	-1
-0.6182642584606197	-0.005138970246955397	0.3342266526248395	-1
-0.8568545622087385	0.1882584988976286	1.6081343905432117	1
3.0114927042301365	1.01064910007086	-1.615923435450377	1
0.3355684147521196	0.1860374242371694	-0.31536342261923256	-1
-0.24586767705956555	0.40965545658556624	0.6429242625214111	-1
-0.4718366167435084	1.1506971637474415	-1.5823211641874275	-1
1.7156627772634712	-1.023222196625507	-3.8423576301364677	1
-2.070170459880383	-1.5802914899158564	-1.8963578221271105	-1
1.4945661557625465	0.16960224359243534	0.8458200272832411	-1
1.1623347290986095	-1.6988315650473744	1.0374583436461662	-1
1.156531550475791	0.21066347596987606	-1.4129863905434297	1
1.354687502267898	-0.24579473007499364	-1.3679082006999381	1
-0.9128769403708106	-1.603886747026669	-1.9849590114286704	-1
-0.20012602186351738	-0.04459118772205017	-0.22981526574589073	1
-1.658685598811827	-0.34205136225829547	-1.4880369858740146	-1
-2.2675273099615465	0.368572534226761	1.097406635411282	1
-0.7063223664234374	-2.120661436854131	-1.812878389594311	-1
0.6651522811012226	-0.1877744961826501	1.7452034439153312	-1
-1.7010057404766261	0.8450542769557696	-1.4922291703284678	-1
-1.1245786763854162	-0.45790057223517916	-1.6376613640005244	-1
1.7705907335581426	1.2106605962321215	0.9686057782809048	-1
-1.342984014995149	0.22746951528775028	-1.4020569598758565	-1
2.3827091003977734	-1.9188337761673644	1.5996373029974644	-1
1.0570681279129504	-0.6183263405868457	1.2619286820571591	-1
1.4928483450049348	0.6152477435332292	1.6748075071867594	-1
1.833474505405355	0.5851035614634739	-2.82545798397256	1
2.180831843669403	-0.8102233380019005	-0.3019129590716856	1
-0.10053094157524528	0.22268307254318487	0.6603125608107475	-1
1.1950387444085206	0.7949546229934775	-0.82932053167195	1
-1.328898617787551	-0.30888895865607613	0.8867435171353972	1
-0.9604438588921012	-1.2208000517775952	-2.0537609774466485	-1
1.2123979265805807	0.9129197791699366	1.1427738939547778	-1
-1.17335263369091	-0.20495602476594366	0.9967750884884826	1
1.2911230426649603	0.7406652484358832	1.4642521938256519	-1
0.21658552423571506	-0.05439559753338011	-0.5689044275810322	-1
-1.3428266490568128	-0.38993487725333686	-1.4434089072640948	-1
-2.9685895948929484	0.33380390157213224	0.5254410240047797	1
-2.060273159030156	-0.10701051793296007	-0.7874560830746902	-1
0.42058146028645516	0.19323495970806445	0.42548508942407887	1
0.1316390634999749	-0.014973769396674162	0.06723635633486416	1
-1.8308850002965322	0.1603817454055783	2.140951645162309	1
1.2015033984567254	-0.7430522907557131	0.4224812448575693	-1
2.4210781661333467	-0.10184397211916758	1.9254751585982905	-1
-2.1162012997246924	-0.8235993109195529	-1.3540869521866785	-1
2.0229467263516967	-0.2643260633638954	-1.913132073061825	1
-0.3891355511138058	-1.6846202862294117	-1.6619106002910802	-1
-1.5600666355474706	-1.3664496333863148	1.117779139645945	1
-0.2237575109532185	-0.17044958769446683	-0.2032975317876416	1
0.19045542575784108	0.7240396328675478	1.8977476871558143	-1
-1.5824368809734919	-0.3767654250382242	-2.1051031165462524	-1
1.617842475150744	-0.4650489247402046	-1.374841198315353	1
2.215590742603858	0.6972117551003001	2.326653980465116	-1
2.0395283261445023	0.7215090269356388	-1.1705114885246128	1
-1.9485880124264499	0.8877553654941572	1.2815549909259278	1
0.7842941475004072	-0.9557654416818148	-1.5855650345899974	1
2.547596686484137	-0.24081009488622895	-0.7759200290474259	1
0.4901412036014235	0.14964877439753546	0.5060306368515195	1
-1.2156337132285895	-0.8973979202301572	1.5558756802220672	1
1.434513698927654	-0.12200672504181193	1.6508252784076256	-1
2.31386474527447	-0.40074561028474714	-2.992071490826122	1
1.350585275661999	-0.409077938960585	-1.3898267200961967	1
1.5056402104572362	0.21691462593751498	1.794182734416985	-1
-0.3586063613571484	-1.1959412757442953	1.524277488554388	1
1.6104573977496301	1.1680744491779735	1.7167548863718025	-1
1.4868390326178609	-0.43973496899013353	1.0695008783735291	-1
-1.3222818541724255	0.35203549799408385	-1.8799533634395633	-1
-0.5477146724696208	0.05410685733982945	0.3648816381546394	-1
-1.8758545225428085	1.7645335707396346	1.1244091108122085	1
0.3357195473997722	0.2345834232084576	-0.5193088425227838	-1
2.1704134738149747	-0.4469902298952335	-0.9672840675492325	1
-1.1545227630213197	0.6605176316487946	1.444589356573512	1
2.10606945447308	0.8798647691035925	-1.7928920407602158	1
-0.851411104019581	1.9639223926119393	-0.529633025257207	-1
0.8862775227893291	-0.9551345067086179	1.5064360608735587	-1
1.1789556360557147	0.9180341739131971	-1.605296228963625	1
0.9201344355783792	-1.4189505305328218	-1.792538665988434	1
-1.1833429724584013	0.4704891470347147	-0.6960456242919102	-1
-1.6963035408279514	-0.5335001497409221	-2.123420398680966	-1
-1.5725152593384335	-1.4256763195074997	1.4684835355522659	1
-2.2375097767616263	0.7520735516759252	-1.1777842511889987	-1
0.5969024830694075	1.2769382775834712	1.8460557512865412	-1
-1.3372606414731196	-0.40120735552151665	0.6324022258454101	1
