-0.13426963339923262	-0.3015960074646129	-0.4062333612261208	1
0.4114979419572933	2.1687002989610535	1.1123564044574592	-1
1.1216793007390344	1.6760683302158954	-1.436213656293422	1
-0.10561326102707032	-2.444475201606019	0.7712115167973406	1
-0.7792621171987373	-1.9029418205576727	-1.4394764968257499	-1
2.129420400708201	-0.8306071340482248	1.5373183630924578	1
-0.03675198771939694	-0.8105144922253379	0.2992767333877885	-1
-0.09559904781231958	0.22078279731038475	0.41080934617326853	1
2.1227457446038316	-1.8484919508369186	1.7326626491098058	1
-0.4913631562344229	-1.9975014539190372	-0.7239381393605037	-1
-1.1919239987886374	-0.8143612121670385	1.60544357304764	1
-0.6062998122873616	1.9029568199099662	-1.3661053998807113	1
1.5027499987839206	1.7385589378079134	1.837846722101829	-1
0.3049413832863135	0.8580485515835821	0.5293359844648194	1
-0.903643064794541	-1.8477313604527443	1.2848012300978282	1
0.6824590405427856	-1.6460066097294412	-1.1240749677802815	-1
0.3405739979920229	1.4794789787954516	-1.0238439638829162	1
-0.2740910453607711	-0.2568541044710025	0.38779050121169045	-1
1.093987884410245	1.857422043601972	-0.4028023738496749	1
0.4904254042602948	2.356316572197833	1.4120239863285873	-1
1.9593490188242033	-1.2354264750630615	-0.9971821940982553	-1
-0.28920123939960524	-2.908093904550144	1.4770885534511355	1
0.42875701964882906	1.1220474762385564	1.5445996744309487	-1
0.05666118998023206	0.8055268085471202	1.9237114946713594	-1
1.1079692652390003	-0.5316968586519761	2.154668676408297	1
-0.03495119840096591	-0.4295308524185464	3.0550745863546855	1
1.262392100728852	-1.2766352287993703	0.41956305148567996	1
-0.1722115324165775	-0.31442703982869286	0.26470957945602813	-1
-0.39633560775066545	-0.8930221684931651	1.5614635217675192	1
0.2141159467845077	-1.0705432518169817	-0.9447078302187809	-1
0.3146457640000514	-1.4970145123078944	0.9768540066869774	1
-1.294795566795697	2.096253667055451	-1.0461063549389233	1
1.3907495631292464	1.4568499513851636	-1.1375041866608357	1
-0.062091799629551005	-1.4178236919118445	1.8558135454033136	1
-0.22353252848217864	-2.154308600360292	-1.8308327777155424	-1
0.7571061509557004	1.6360919014295985	-0.7283009537113302	1
-0.5233167252535932	0.36107302178952627	0.5035741684725547	1
-0.3688760412414067	1.192033131491275	-1.0885415331315915	1
0.270718773335129	-1.6139138468139482	2.0764379372963937	1
-0.6964220490921278	1.8961709816351817	1.2702966059497758	-1
-2.1648549436413687	-1.5643077381111727	-1.2380015436810596	-1
0.8538984374628238	1.782549172271332	-1.8467584996639521	1
0.009675584011319592	0.5812712180799068	-0.23591720465924546	-1
1.3250301721791244	1.395418684526641	-1.3391762383132935	1
2.215963089432088	1.6970805312715371	1.9842826107643727	-1
0.028987193471249336	-0.5495913034692154	-1.9565368633033302	-1
1.8282869087050875	-2.038373813083696	2.9265192921676277	1
-0.5493456383360094	-0.35434892372936994	0.3783668234986482	-1
-2.245610141897863	2.60541272962775	-1.2961855677568865	1
-0.24482306478414465	1.8131838100598128	-1.2572798214278478	1
0.10343370804732077	-1.6520216136283954	1.5789563351506324	1
0.6969024102585014	-2.1435892745812617	-0.8840262134510157	-1
0.8727125965333521	0.7960334492024435	1.1863355594919194	-1
0.26822992597197376	-1.014927402706353	0.8425559728889875	1
-0.40769997963644533	-2.680609365417284	1.1256242490150803	1
0.6132669852958567	1.9326191039504583	-2.4517896893559232	1
0.5787225951596281	-1.7179417926961222	-1.263342495824708	-1
1.1910728986990804	-1.8582909396985277	0.9786632251076232	1
0.3636029501982103	-2.606048369156303	1.7138196211679497	1
1.657416191946868	2.4291017944742244	1.1955149658851147	-1
-0.623204344909659	-1.7644527925350955	-2.320893051197785	-1
0.8159235297385456	0.9260447061473132	0.6916919688220798	-1
0.8964937161580404	-1.6152232400283102	1.009324872242576	1
0.44722224269317573	1.2528833685996537	-2.3060821364244766	1
-0.027838909718145535	0.7826426347057357	1.139392566227954	-1
-0.2214362004471708	-1.6084897301344008	1.1526389540207695	1
-1.8657609818598375	-1.8434457803330446	-1.6700196113284165	-1
0.5893197058479863	2.0477051637037897	-0.422290648703999	1
0.49282923593648986	-1.5920283620510256	-1.0628125158690003	-1
0.3183294484137176	1.549647020982543	-1.2518269323314875	1
-1.6145753021824234	-1.6063134360728673	-1.9414643572040653	-1
-1.4329063896991234	-1.1854565439636975	1.5061478410300684	1
0.08841146264262147	0.9298415755998667	1.4536029617984538	-1
-0.25661044531347443	0.5069447271679313	-0.38648153396085744	-1
-0.25709071359803437	0.22798310897487137	0.3268812237941321	1
1.4181530422575237	0.8977383879393216	1.4917430583147477	-1
-0.5596112021255696	-1.6780862908297884	1.4612934197761396	1
0.9006640643291046	-1.4802003795636096	1.1238049971997766	1
0.3078549369402921	-1.839428773652461	2.247018401162039	1
0.09009194149052553	-1.0384907792423945	1.2818354157438892	1
-0.5530716313545487	0.20291901685469083	-0.2608658091734805	-1
0.11267271389213801	0.6223755014866764	-2.2576320719054066	1
-1.0843950006618015	0.7792910009082057	1.0687029274582993	-1
0.6657605685598154	-0.9947699379225082	-1.7568946277455588	-1
0.4865274308860233	1.1324294539253896	-2.587596220343909	1
-0.4471826751435069	0.5912986899409861	-0.18648335023608067	-1
0.1514916799814202	-1.1695170274494913	-0.985304532965988	-1
0.08824274284783556	-1.3320530186133164	-1.3797759153530311	-1
-0.4970228791899187	1.422377888089927	-2.1167135310341125	1
-0.2686132866484483	0.4560681254859824	0.31898413588525215	1
0.4005147163622096	1.9795862465114291	1.8504989258228524	-1
0.03509659481451638	-2.3802412939495854	-0.787801353976157	-1
1.2193641000788777	-2.0203998460150507	1.2949972455695047	1
0.3681732725376248	-1.9968850724440381	-0.7134306485911555	-1
-1.5117826134350465	2.3021201962352213	-1.107902443954992	1
1.4519040198258477	-0.9180501228063411	-2.191648616486895	-1
-0.25582477570299367	-0.5079854373120655	0.5635387193641113	-1
-1.4504091832878567	-1.2259823447372646	-2.6768251223734394	-1
1.3928703401786438	-1.4841898657006847	1.868465146605036	1
-0.444165565194111	0.5227596800338444	-1.727554210678903	1
-0.4480995889718566	1.8230878128268326	0.7559718772559898	-1
1.1529540930747497	1.6788162091955332	-2.2832704605907126	1
-0.3359775670491374	-1.7197167952037937	0.9288386074067324	1
-0.9668427670947768	-0.8905528561539402	1.9514904074510573	1
-0.8846743433393676	-1.0560896551516565	-0.9143794588147154	-1
1.4901878818943493	-1.1488989367289657	1.9053927653297302	1
-0.032483729730378344	2.100705339743808	1.6567446499456864	-1
0.49365023283420006	-0.30649219347867784	0.25361005973325085	-1
-0.5969528879126997	-0.6341167170426805	1.7488861977445653	1
-1.6624366982211218	-1.1331977132574964	-0.7277681744718532	-1
0.24766620832235042	1.9923284128762124	-3.1929664002628693	1
-0.15177567568719774	-0.4328138085010294	0.5061187146010802	-1
0.6361761375289453	-1.5990869695309549	1.428924035933301	1
-1.7008783400533218	-2.417755013082481	0.5456806032246909	1
-1.407169681921279	-1.2297236124169268	-0.694828143012071	-1
0.18761047853962287	1.7153399425334568	-1.5094167361959903	1
0.18256275808220085	-0.43564245612044394	0.13503910998824833	-1
0.8716070139866501	-1.5072130396955181	1.408202967116875	1
0.8104881015383776	1.6848691724218179	-1.8356748684158999	1
-0.4795567437413044	0.7805428067066948	-1.9908388458063477	1
0.004636229334104467	-1.9774354035754436	0.9177698158625618	1
-0.6394982417272599	-1.4963049570431242	0.36698400627693367	1
0.12274683420862005	2.1101152110449113	-1.3882554580627042	1
-0.21909331241695532	0.8454041980931376	-1.6247389320907875	1
-1.2959123424490997	0.5073089370906096	1.143922460515913	-1
-0.24191727395889884	-2.1836057190714024	-1.840397582993376	-1
-0.0662781332163245	-0.23308088181226463	0.8060638647587987	-1
0.5677085969283383	1.5607191007354926	-1.2699849170134936	1
-0.3855902835092502	-1.0998010432383083	-1.1257133137439703	-1
-2.310445039677764	-1.8211864216019475	-1.54836314544543	-1
-1.2925532705299603	0.8949015389354749	-1.150270588832494	1
-0.10198403062427244	-0.19721970949722956	0.7412584249464674	-1
-0.24650081087955633	2.262500378133169	-0.7829933337799511	1
0.06944062642859748	-1.740280225003357	1.8556152299595436	1
-0.027407394094836248	-0.21898803050501414	0.5293667523301074	-1
-1.2031202919661226	0.6103397812970988	-0.9281785726900778	1
2.2136428632322747	-1.1938332063588672	0.8125881345225363	1
0.2752156724541222	0.21067386987478023	0.2735348022269979	1
0.02739026263511972	-2.1632313261564664	1.7751723551811143	1
1.3224852040112398	1.3521710690845734	-1.8625828831529145	1
-0.5528414111701448	-1.8057631130836698	-0.9998891314940102	-1
0.20461304319201945	-0.7814046847784181	-1.3005591937802	-1
-0.33978066581665267	-1.4061262548320055	-1.1703039511027293	-1
-0.01881880533456523	1.6826180086678315	-1.0685800886827734	1
-0.9095806571250785	1.1577685115122403	-0.8251486465232765	1
-0.3142372747777528	1.3419728840974876	-0.7896697858811847	1
-0.6939034072094934	-1.5254815400161688	3.261795416103223	1
-0.8685184103484214	-0.8764125353567334	1.2419351246122035	1
-0.6316595586234014	1.2554296415921773	2.776463727600012	-1
0.4097423992162015	2.0721388184222786	1.7092645937731819	-1
0.19078109194429374	0.4471238313650093	-0.28381121130223796	-1
-0.12054927970190173	-0.25082003380328927	0.330567294632959	-1
-2.2569011385469295	1.1987713361522931	-1.0945029915385047	1
0.3912377948142719	-0.5849627754241754	-0.33633840172392704	1
-1.5550562830318029	-1.4536238313268044	1.3173359405910303	1
-0.11146500088107501	-2.089580895952075	0.7623221433240336	1
0.47235905468539363	1.787318195717643	-1.3970338645502702	1
0.976155917430869	-1.0885421518579443	1.2233924572818013	1
-0.2930958005431938	0.7573568059538842	-2.0488961168123097	1
-1.1947533877610865	-0.9936718957907271	-0.36930538857344586	-1
0.8006412494965774	1.2461272996393766	-1.254028366393615	1
-1.2864885279254734	1.3107685501648496	1.9130975188806247	-1
-0.12913159279168343	-0.7111735778788962	0.3526297515993042	-1
0.10636649276923092	-2.5832878528581418	-0.581865729593232	-1
-0.8372929614400851	-2.9800433350811435	1.451900852062702	1
-0.6568449441812323	1.0522038819099584	-0.7968912132074313	1
-0.0005586977220372463	-0.055076906380730095	-0.6832077535461302	1
0.777342543622766	-0.948786765279197	-0.9654657349656239	-1
-0.6262687913415519	1.0126198324763502	2.08762885251917	-1
0.2180348234788142	1.736516127496177	-0.3386119641220442	1
-0.4091372688430959	0.8751041295878199	-0.27553875475797335	-1
-0.20959730962802003	1.5471071021233942	1.354848589494345	-1
0.35301307684355265	-1.2501463029564164	-1.3068997971662437	-1
0.8192287072615942	1.3247281483427573	2.2480548799752955	-1
-0.5457570891849307	-0.5460142070080127	1.8681455967786904	1
1.003494251918937	1.7381367835401975	1.17496902100948	-1
-1.2652940302725957	1.052675339023672	1.0736530813059255	-1
-0.4875653045410768	1.4475133509837328	1.2487687426095893	-1
-0.317287486507428	-1.3346970220258125	0.9159872741251885	1
-1.2570673140202737	-2.8228540010089227	-1.6374577127982197	-1
-0.25109116748198856	-1.8310255086777265	0.780599220213412	1
0.7305990117056783	1.6358718434590835	1.1589441989418887	-1
-1.597417756042869	-0.9862093233946111	-1.1038144390158233	-1
-0.45248100811288144	1.6852771139221083	-0.533587912716053	1
-0.47565483242859036	-2.231212785270013	1.3880255075518368	1
0.6077122352127299	-1.3709448300826432	-0.6472323300006502	-1
-0.18017663069064688	-1.6716187393550392	1.6914346622009195	1
0.6091711600212809	-0.9682752513666503	-1.650723839635012	-1
0.704049123203248	1.6946573574020645	-1.41703722440769	1
0.05470713978570052	-1.1156612827929104	1.791402846425301	1
0.3409079572264966	-2.3979180738505854	-1.8483394159138915	-1
-0.6362991934221127	0.4423580379766498	-1.4541688436361655	1
-0.11448724356293277	2.144004098112187	1.4457490690315968	-1
0.5574191034434655	-0.776761202702666	-1.4915473779919255	-1
0.24763522638069535	0.4441716927187835	-0.5326285547653457	-1
-0.42674058992361596	1.3137747259040042	1.8310525992090936	-1
-0.2974493142564493	-2.450166883398449	1.1405290550128198	1
-0.9043859434262361	2.143617304541738	-0.36678871814977665	1
-0.09862259409925267	0.4481977967195925	0.3424196265672951	1
0.4907251585119588	-1.2276718616145497	-1.3556860982725407	-1
-0.2471749553568992	0.32629613175955335	1.9938262863083507	-1
-0.22793624921796063	-1.5043059676747417	-1.499227273431447	-1
-0.129088203546121	-1.5333012294746964	-0.8149963618798953	-1
-1.9849061079182033	-2.061418246475865	-1.1704974551042626	-1
-0.1206713165249566	0.43983740719690784	-0.67022535670819	-1
-0.0760180060319491	-2.0261631708375787	1.3132060696185692	1
1.0785053423099862	-0.43499575791281303	1.1312210623074963	1
-0.45367140146468965	1.717654160933898	1.4997600499159323	-1
-1.20310872482005	-0.9629792019083374	-1.3338474535362213	-1
-0.13425460010078336	0.565081933891299	0.5077909867550363	1
0.8101485066855129	1.5995329983107378	-1.8446615354515463	1
-0.031200655533533656	0.423371217366344	0.4894132863330195	1
0.08138575533077723	1.9587254860698193	-0.8344087028529341	1
0.8931403816532255	1.320367699610161	1.908359840403298	-1
1.493504596076992	-0.6076685206347079	-1.6382308507059644	-1
0.1972102663256774	-1.56766467987338	1.7053311903612507	1
0.233443679503348	-1.5845196516582105	-1.4613984269924183	-1
0.9056608604780148	2.411272667995087	-1.7435885153446453	1
0.8933588139998341	-1.813229261503645	1.5699812607848294	1
1.031210321519057	-0.962929031778009	-0.7280522146487112	-1
0.16339529998985336	-0.5203126726541674	-1.812157943298469	-1
-1.265649975356055	-1.3016848417332854	2.1080081741167476	1
0.06817577869635541	1.532277986360209	-1.1924004351820767	1
0.12431561338800035	0.26553639178031374	-2.096883671543693	1
-0.515646276972752	1.968880420783759	-1.5119891231333045	1
-0.9786631018456273	1.5258907982285452	1.0838935119023825	-1
1.3062662362133048	1.130620956357571	1.4537424256716356	-1
-0.3523183559898552	-0.2826554067069002	-0.8172109142182378	1
0.6908113584867971	-1.2956170916791987	1.5205237150116064	1
-0.2662257010106144	0.36500580832085006	-0.23881899922391023	-1
1.2587420533596223	-1.1017049477138257	-1.748537088647465	-1
1.2695178325796217	0.7231238296087441	-0.19930714443449227	1
0.46033822078634945	1.4957100602912055	2.417720020428644	-1
1.4465453429768518	-1.8413575725926774	-2.807989813281411	-1
-0.7692383287474278	1.084466201231363	-1.2385615773173941	1
-1.6813725921664753	0.7164713168346935	-1.2012807953628313	1
1.8250054216113825	0.5814383946594964	-1.2050937726899555	1
1.1438724893034997	0.9807768442108572	0.9388319955399904	-1
0.8743569995980084	-1.016811589306769	1.022358417627125	1
0.34894955533413397	0.9202632390957901	-1.328489763003354	1
0.1591290790451435	0.5578441216120196	-1.8852133131861544	1
-0.8813566995968704	1.4251664296718314	0.9187608296239507	-1
0.246797890064701	-1.8328802104708934	-0.7161161718975623	-1
0.6147345502313368	-0.9915690070361673	1.9491398652210892	1
1.08068896299224	1.36850766841679	-1.6039172779170003	1
0.11278954918992093	0.29861565988733435	0.2750943390715643	1
-0.5234324406703214	2.5798491247252198	-1.7883549016647404	1
0.04057914242133037	-2.009783835221581	-1.487192018910078	-1
0.2308976054101394	-1.7865421668214763	1.7299215743674528	1
0.5235701920179323	-0.9913158779999369	1.065307427329326	1
-0.36440323594314084	1.3139752860814318	-0.4656142466559108	1
0.317900358949553	-1.348672576805593	2.3922162773911118	1
0.9585503000396711	1.1574129201600039	2.3060999273027316	-1
-1.3432940621054814	0.8283198556184642	1.5606499980326838	-1
-0.3468291116399614	-2.2362204205738347	-1.3497980238092984	-1
-0.30115246686746894	1.058958224820638	1.4618056637039427	-1
-0.047603362960985975	-0.24972401310484554	-0.21634898848067965	1
-0.9204748798864352	0.5989433864513076	1.4033534372671541	-1
1.0530409650477421	-2.0528634350276143	1.118369234142255	1
0.512764688536728	-2.250286055315857	1.2923189413060363	1
0.8737982866474328	1.8258485155877722	-0.8014484619658063	1
-1.6762514700521736	1.5594830037909815	1.069919104705525	-1
0.0905914513370944	1.2057194877020558	-1.4846888728837797	1
0.029931482275866145	0.6462831101912119	0.6034685358869227	1
0.8659978390819874	0.6081091933379621	-1.034523593221627	1
0.4294587843309241	2.5702317322048494	2.389213221933041	-1
-0.3948607306951613	-0.6105001787432083	0.34646426826946686	-1
-0.6838392381273337	1.167467493808843	1.0663946633220618	-1
-1.1933352446418233	-1.8347494933613415	-0.9533036292976691	-1
-0.03326424425276941	0.24274559184984845	-0.19388278688670382	-1
1.1515691565889383	1.8863646234645117	-2.5719722553171294	1
1.2841244399122447	-1.499047129726721	1.0927417974500842	1
0.4867933284837605	-0.8104041597700338	-1.379899781271433	-1
-1.934313932672505	-1.0408429487322917	-1.4693134758798176	-1
0.5313787935060991	-2.2375411724701384	-1.0890208031011563	-1
0.1924977948687111	-1.6254417833445605	1.6611565887462085	1
0.4279935283699409	-1.2946312157881539	-1.2718270960914957	-1
0.07308779153733957	2.6805104983196584	1.1671932878484392	-1
-0.21095200746295162	1.167805321573018	1.0604130405499808	-1
-0.429403870510546	1.1551083129584159	1.3969912192902294	-1
-0.3745308365200108	-1.8647551247926388	2.3030302207209807	1
-0.37373388676693936	-0.40249201895213055	-0.4403767434613209	1
-1.186833754757547	2.3968985435753196	1.1548441023225866	-1
-0.07834537591089934	2.01451355347896	-0.8626894117521262	1
0.8908841315009011	-1.4358361259021295	1.4716191195325565	1
-1.6015973729579205	-1.6316487178364358	1.4403829553552756	1
-0.4021178851667174	3.4379260131318006	1.0248210968089173	-1
0.09567455520441301	-1.4860138177616011	1.2147887485388802	1
-1.0541593719986677	1.4994134047453276	-1.703810396112032	1
-1.8773810067825911	-1.77843768333961	1.5762430895162458	1
0.2106110476241317	-1.495980868675832	0.8652368684463563	1
0.7248918388759293	1.201424760000227	2.327880840482943	-1
-0.07790364245678998	-1.3818877293046972	-1.4801908392238188	-1
0.5976350431711249	1.5289392859650557	0.9846376289109804	-1
-0.08050508566417741	-0.7406961008101522	0.3351290244722669	-1
0.08211962815724577	2.7220378539951025	2.1013636106057647	-1
0.3546882818692888	-0.11407981185292367	-0.2819189347784533	1
-0.7524243836736256	-0.655434684479915	-1.7907971091017778	-1
-0.6311147763735877	-0.8671081164001966	-1.4281311549660443	-1
0.2614241667080372	0.788841804955944	-0.3555977282735575	-1
-0.2477530711245308	0.2221272612348021	-1.7577062868411315	1
-0.8656825226792517	1.078801450087294	1.6142221670535042	-1
-1.4439240261970823	1.3792765336472148	1.656465785057516	-1
-1.335200915338211	1.763876345630366	1.771994952095865	-1
-0.6414805310520305	0.9551544251384119	1.3197803638064969	-1
-0.9476927141086314	1.5152699213014744	-0.7561191828384605	1
-0.3619470778958779	-1.8138036468922323	2.2717892471785883	1
1.2193095824497995	1.7264235507900711	-0.9581377541390158	1
0.04034675445574701	-1.3139446435291253	1.148130784493164	1
0.25187225226763577	-1.7336830284530749	0.941597756014467	1
-0.11323975819715826	-1.2168611677723113	1.3784806814690704	1
-0.3517407995887109	1.3519193673408267	2.0749753520349885	-1
0.1743289585727037	1.7659545141901476	-0.8544970560463239	1
2.2823965083886573	1.6055851524120546	-2.1065671513985906	1
-0.15075409970508324	-0.4436037113018414	0.7030492120485876	-1
-0.8960817400413078	1.3400101757077345	2.079094526183908	-1
-1.3142876455038714	-0.594193105862977	-1.4034317435598191	-1
-0.8612379078801716	-0.6054064454871209	-1.508930720417246	-1
-1.5528391887293278	-0.5834390028563343	0.9784115255788856	1
-0.015326432875597732	0.24336850777463848	0.2168027410025303	1
-0.26230028906719055	1.6424487414849294	-1.5030623628741822	1
0.9311202130150895	1.9867579150268047	2.0628554593908976	-1
-0.05805671530649651	-0.5744095265031666	0.4896871601243312	-1
-0.9987274987089096	-1.0680776106293044	1.3110366651493166	1
-0.8878415201888816	-1.1377189827917542	-0.9117636891081862	-1
0.004762244396615683	0.3020233320179684	-0.2447688589114516	-1
0.3133599868443741	-1.6938170622493225	1.2168224396164122	1
-1.5257229867120183	1.9632512350559113	-1.5268879601065255	1
0.2420830835936338	1.9596271595925925	-1.0787164415858685	1
0.5521561780925286	1.2389722739014342	1.8196990898240142	-1
-0.019208823373893943	-1.7014401120270446	-1.5622106491506864	-1
-0.4171019384410839	1.777995646579935	1.0693408154321726	-1
-1.66713324246997	-2.0092204413742367	1.624055877482666	1
0.15577306343857844	-2.2173092582058147	-0.6347478274970407	-1
0.10144690026487889	-0.4468478207888673	-0.49180291638153273	1
0.30839010737465633	-0.737265737754397	1.2589564378353622	1
1.8735910131774092	-2.2355891083837656	1.5414098330717154	1
0.3052936527027245	-1.3356482689417017	1.406776607249679	1
2.8107358538722127	1.521317062412158	-1.7658961211092337	1
1.2662380039591872	1.823238691127742	-2.014209501795523	1
0.4810758921383685	-1.583928222526443	-2.942737512865566	-1
-0.06616698148128974	-2.000782501143429	0.8096580934845546	1
-0.2909722413247042	2.1849774225686946	0.22010609869852515	-1
-0.5488911481555109	0.4424019651042869	0.6136040247765284	1
1.176474729890119	2.4874256901365834	0.9348975432030229	-1
-1.4391062037903728	0.4092272981294241	-1.03531444136848	1
-0.1199727726917299	-0.8585699144396437	-0.43124541584716963	1
0.1094000157434953	1.0345857272068473	-1.0668171253996992	1
0.5232303702087902	-1.5197104056526956	2.136652415203214	1
-0.930916571926081	-0.7555772426598034	-2.07165650254419	-1
-0.2101031397646933	0.9096997157039741	2.1199611966187613	-1
-0.5874196461544428	-1.1498333217943542	-1.4951906788642022	-1
0.6810885195710826	2.058193591444492	0.43937657148674863	-1
-0.4787846179732904	-0.9176330170824075	-1.8976004998273994	-1
-0.008753082304420403	0.9638692106195687	1.7724559279532899	-1
-0.19858265979494602	-1.8222468268408698	-0.8626128178106898	-1
0.29261266642881106	-1.2083271773831985	-0.9237699152783737	-1
0.32282990688527674	0.35043507399340246	1.8059879081859802	-1
0.19712895828966123	0.47681574945729877	-0.6424844215865803	-1
0.3560971235006752	0.4331804863094892	0.5769368790120801	1
-0.925179103608145	-1.0709395948250342	-1.1032690583677827	-1
1.962291049791106	-1.086898010709738	-0.40277980635344907	-1
-1.585478588942011	-0.9828524947597093	-1.4559723352948892	-1
0.22822869006836763	-1.248027512626754	1.8074365498331186	1
-1.2251409830227191	-1.2608159694358614	1.5907617282557842	1
-1.4104283379993852	-1.841224863340501	-1.0704850870650775	-1
-1.8999094829137588	-2.148028393020782	1.7398142056900547	1
-0.5256233292016262	1.5074138623038518	-1.0818898505647023	1
2.4485793110114527	-1.7950634050001364	1.7557791259450057	1
-0.10593054299377079	-0.16503088872355443	0.22339581041354625	-1
-1.555236110245226	1.1664124293846179	-0.866173285264674	1
-0.1682613425675986	-0.647521674281262	-0.4030723989689065	1
0.03369126962389893	1.276896097031633	1.4104250893432382	-1
-1.0005507931134539	-0.9716298140090015	1.1152174389678084	1
2.272619009817825	-1.4750140468585808	1.7188147980718171	1
0.13541062395914358	1.566851729589053	1.85611924486695	-1
-0.6691475045744218	0.47305449249079584	-1.7465100133437532	1
0.0424005816091762	-0.42291150135838784	-0.332259695510861	1
1.6759917539098586	1.7554435888026743	2.3341978461168273	-1
-0.22998264113077294	0.45551695481543963	-1.4530345586498763	1
0.30018150672425636	-1.6635942050334234	2.863404752522391	1
0.22015846341093404	0.3747233193594038	0.43215102929748056	1
0.6855403588363713	0.3294846964766293	0.5678703213777528	1
0.0634569085009913	1.4373237027736383	-1.7460812199844291	1
1.199008407351749	0.35399279299063957	-1.8040554238970739	1
-0.12837536943170633	0.47201697823303973	0.6817704956615485	1
-1.62989329635571	1.3358200263465545	-1.972707415492322	1
0.22577955387883747	0.34882158221339576	1.3496911591067495	-1
-1.4031054487541228	-1.2360263074982256	-0.5045840634363924	-1
-1.8937684373185466	1.2448218197917527	1.1409239511074762	-1
-1.3764115738300464	1.6117101342477527	0.33333394545593353	-1
0.2706393661210422	-1.7122466829436958	1.1718452703024016	1
0.2992381222733756	-1.2194776529799662	1.079201376232631	1
-0.1419885110561671	0.6822221866702726	-0.3147596257224616	-1
0.9632342634437363	2.1816652373468646	0.5216671529888018	-1
-0.4910119094209991	-1.5365189297058008	-1.461630826043751	-1
-0.8161084005758884	-1.4658170800582784	-0.9526187012226308	-1
-0.5944060060127155	1.2028612027918721	-1.6618222280680996	1
-0.3879574243502266	1.4740581144979046	1.3464223644263607	-1
-1.248646539720582	-1.413083263931358	-2.3487573265585	-1
0.24298500239206808	-1.232670413289001	0.831219206588548	1
1.884351419556343	1.6776347151664224	1.0301523253993352	-1
0.760150932756158	-0.8993487116305483	-1.5563268359812397	-1
-1.074053696854281	-0.49959770341151083	1.59333938952226	1
0.10862727193324305	1.3519432036095924	1.3234421568632917	-1
-0.12816271894609096	0.48648422019700366	2.145846406650852	-1
-0.6434173673520683	-2.208710524149724	1.319753838102564	1
0.12664108495892926	-0.6612295805884182	0.5004676638734759	-1
-0.11435623760894015	-0.5792144681139509	-0.35387439919566777	1
-0.37117199687764835	-2.264459222133462	-1.784845030686979	-1
0.5699928776638913	0.3348824061802816	0.3274547841461884	1
0.7261194412938612	1.188307053449157	-2.2989160509227324	1
0.6296735089701199	1.7370030580892442	-1.7846289735483252	1
-0.8396636575270986	-2.115143612426191	1.7384848643340884	1
2.0806806224207475	1.023165987186342	-1.3474181392411855	1
1.3425053157648745	-1.448044759302251	0.9190096711136967	1
-0.20391892865337696	-0.2823645465924993	-0.4738177146038129	1
-0.5429523620646699	0.7570176901501745	2.0762088858707517	-1
0.84547741318752	2.9088047420393237	1.6722265841277684	-1
-0.03667510780886496	1.6409587110542097	-2.4679655722994145	1
-0.47403673530304974	-1.2094584208260075	-1.5613410301151855	-1
0.7022033550748059	-1.199138642854705	0.9646212771008399	1
1.1649806640855773	1.0315960398516655	2.767754802168028	-1
0.8024896049451709	1.8837438920885738	-0.7060799553337178	1
1.8883315494567616	2.720853084521595	-1.4198560588521414	1
-0.36918289126562076	-0.9934587051815612	-1.9673656526747831	-1
0.026875315148847084	0.6951834244020857	-2.1128929582247387	1
0.2816873946988511	1.9806158351652714	-0.7756528057717431	1
-1.338093862189102	1.0386127105013212	1.7536983752532525	-1
0.032041669161460326	2.1492985514484717	2.0952481533276273	-1
0.7996728230011996	-1.355305764586379	1.682637215845996	1
-0.859107490792915	0.7603894051351204	1.0503575762387072	-1
-0.19775854401195891	0.944645386309206	-1.0615870468114461	1
-0.04676105133689964	0.2575228133445332	0.2594032523120893	1
-0.009028193515380582	0.4314824093921537	0.18878528673951558	1
1.5300479009028123	-1.8047203244685808	0.635383174154995	1
0.6428127250683003	1.0647607962390355	-2.0357488019862275	1
-1.6392682244284051	1.7947492018200562	-1.9863918455536584	1
-0.44888889627710127	-1.9916579562771375	2.636803418907845	1
-0.1517267696280339	-1.4084537493296947	-2.0016626655110685	-1
-0.9207301514851812	-1.7846631676768845	0.96748483402639	1
-0.20713290158624853	-1.9289336178182577	1.3687709940574235	1
0.559129449054854	-2.929950480136215	1.5196744246276834	1
1.431565148910673	-0.9567688446714904	1.270099534652113	1
-0.7029038795781195	-1.4395353898118184	-0.8545620944894312	-1
-0.7363518543561302	-1.7187970804094037	-2.87335261632612	-1
0.688028587080518	-1.819729699767488	0.2674797338100338	1
0.4106977847672282	1.0505486002657995	-1.6184712122419587	1
2.119269889804296	-0.7934168501662612	-1.712394574897465	-1
-1.310058120092414	1.26808503969357	1.3928828139961038	-1
0.07738447678923636	0.14541238101174578	0.21827941770163692	1
-1.4658887472598534	-1.0376711836809656	-0.5760406124316643	-1
0.33678351392547456	-1.3583934804029445	1.848769685071141	1
-0.6875103121998718	2.350846601703274	-1.18335447839222	1
0.8370120864213354	-1.441840715707051	1.1364077912358381	1
-0.31884579474833924	-1.3364056503438668	1.370504086098415	1
0.07006577880868346	-0.9495831410193905	1.7559077190675236	1
-1.0492830173240288	-1.4177248487918421	1.6134350140984655	1
-2.9377095469812087	3.2601572384502377	-1.353595281337006	1
0.13088960227950658	2.0971484673759107	-1.196166568286845	1
-2.2899617673031183	-1.2538975818910396	0.9111530146563123	1
-0.0311508095936338	1.7551525593710477	1.3047099102713795	-1
-2.0948159908252326	-1.3731191767151996	-2.1098571925737803	-1
-0.9196866513794814	-0.3062919241260451	-1.9365259018255938	-1
-0.31989399021215537	2.8313982905904815	0.3937695431374875	-1
1.147267989628239	-0.5615331252899803	1.508575370525126	1
0.27496110490623416	-1.3977766003827794	-1.9231644804832246	-1
0.2705852660782681	2.8348334990248727	-1.3508707862446663	1
0.7056152668385806	-1.8197266839835113	-1.2287321265868494	-1
-0.6881530341006106	-0.6309164922767817	2.584647135536104	1
-0.7647962250003437	-2.3000180693303878	-2.1368220502821016	-1
-0.944881618171001	0.43403854738940356	2.596200636612572	-1
0.5784070196095091	-0.6687658963733562	0.3690046232708785	-1
-1.7545129681958498	2.2699772883063543	-1.5710208908828744	1
0.21345346747514662	-1.3164284614088022	-1.5385297088335443	-1
-0.19835348652051046	-1.848966839816663	2.5680517672163887	1
0.21165809770163754	1.4647098138305394	-0.21584754666825892	1
0.14497720097860042	1.181371233694351	1.6950498723750713	-1
0.33887575439666856	-2.189925705886643	0.8843885716108943	1
1.2398398465921385	0.5206622456804623	-1.3109310401764498	1
0.14564370916957092	0.7423070676459397	-0.27693111441020796	-1
-1.529883854347619	-1.403947815042352	-1.8306724342721197	-1
-0.290231744439968	-0.33334726014726984	-0.33265009568629395	1
0.4229196658923461	1.587915140520221	-1.367298697795962	1
-0.48277964438548904	-0.838734244418669	2.7314703785153913	1
0.901109925686151	0.49901704923273765	0.9774124349109337	-1
-1.1654941020408776	-1.6626065105072219	-0.6243186094446229	-1
0.5196509145651202	2.6950445240611067	1.0823346479713656	-1
-0.4261232722977754	2.54205208981488	-1.0523420432293689	1
-1.1940738301993812	-1.474282335694175	-2.2646947911630106	-1
1.1546387011881183	-1.4533652573424103	-1.0001769207866207	-1
-1.0924769435954689	-1.9198949950475848	1.2403021480772398	1
0.2581467209074896	-1.8967336199027451	1.5447163189076991	1
-1.65122379994841	-0.6792955093909698	-0.8084478404317577	-1
-0.10337802514213873	-0.16960680100329298	-0.47222679671145684	1
0.881973569394863	-0.710493625659285	1.8876075638634253	1
0.03920837389028501	-1.6330413426717005	2.0032196300064853	1
1.8941711446593246	-0.8786507129519632	-2.716175189813042	-1
-1.2113539539364138	0.9696088756764829	2.675304086729037	-1
-0.9141094669194081	-1.8458020099704981	1.466263555050835	1
0.12091963041143666	-1.196886150833615	-1.178804709207452	-1
-1.246780843343412	2.2786298603803226	0.42440751133063137	-1
-0.3442514370881621	-2.17955425875206	-1.7804077668751372	-1
-2.715348531540794	1.4148322112533884	0.35557595780287327	-1
1.337211683721396	-0.7666068412649031	1.0007266027449508	1
0.5731623293967144	1.0524145518960564	-1.8473620944053604	1
0.9823447551885455	1.5913108420932742	-1.2345050401017081	1
-0.39704045916779096	-1.2066330686547981	0.554252661417503	1
1.1246972429654478	1.712369206904084	0.6107457853413036	-1
-0.17550404443440584	-1.6791076879710425	1.3046812601342845	1
-1.0321577273329072	-1.543185433046256	0.7619864346254385	1
-0.09284829478579551	0.2024818997387434	0.42737605623241937	1
0.5074680436364821	-1.6446623198793935	1.3007040949481516	1
0.013641750418916663	0.8985364984876129	2.1891406274041	-1
-0.23485274546794208	2.0807432252402567	0.546341792415688	-1
-0.2156099972945542	-0.34528759750087584	0.8572277468072758	-1
1.7258880636080154	3.459193109053817	-1.9427923165200132	1
1.4444824138583403	0.8747979639052762	0.9210388409138291	-1
0.1263084308213434	-0.599986528951311	-0.2795998414793225	1
-1.4898417163322308	-0.5644683660858537	-1.732346880689029	-1
0.018956962526168866	1.811784622202852	1.7882581399389528	-1
-0.6878833374795178	1.2867158949560857	-1.2608296200677809	1
-1.4207032778914552	0.6952610080625643	-1.3078519857342077	1
1.2872610961501973	-2.744866010777279	0.8421474793708749	1
-0.6263684293012304	-0.9345947957419377	1.651312335851327	1
-0.3297425720502895	-1.7028575177776224	1.012957201000811	1
-0.07522449144394638	-0.8039107187495841	-1.7163817484862829	-1
0.3942052641675833	-1.8412323160641801	1.750131426381908	1
-0.11441589982607306	1.2620740530489611	-1.2020179493941667	1
1.3888668069350332	1.5661835107523514	1.4050761608921025	-1
-0.9692259000905745	-1.5579639839916466	-0.36337041455187513	-1
0.14315068102825323	-1.4028959796475995	-2.413706966943476	-1
-0.8285953548354104	1.260117942574946	-0.3365060679580579	1
-0.06800535041566162	0.28350222282978876	-0.40395420184674924	-1
-0.09935269396692714	-0.9139168266173784	-1.2849910332984564	-1
-0.9272656655968812	-2.412956781186886	2.482612610488082	1
1.5042468915079326	1.041829601964856	-1.2791625748811526	1
-1.0026896086038952	-1.2262235513939428	-1.36802125316068	-1
-0.050438038407181245	-0.7900840452295043	1.182954327296211	1
1.603788529359854	-0.34932911095405544	-1.1803679177396362	-1
0.6769426600019	-1.5378552480138024	-0.9948646451372231	-1
0.6424360889477168	1.8166530948465036	1.2657657303771976	-1
1.2240110871648406	1.9407194317532708	1.324851813830686	-1
0.02898101631455373	-0.7463214863725263	1.4716256206523761	1
-0.6516660188139596	-1.1676817985822574	-1.6066540499960298	-1
0.5808573307250432	0.5489121750152453	0.5855933673308988	1
-0.47653356467194774	-1.830328193191984	1.1086913181357214	1
-0.0020448311326491018	0.30838981074539795	0.2778239531866078	1
0.8983158014458743	-1.7881392087807062	-0.9737281839270291	-1
-1.660162622042233	1.6446999208441675	-0.9017681994016254	1
0.352544127751579	0.8524543539302579	1.7920233280903137	-1
0.5174646342729198	0.9902568693875768	2.0161911974531215	-1
0.4275554772311102	1.1481369991939478	-1.283449370933438	1
-0.7519788374579031	-1.1945456574646618	-2.783351866798418	-1
1.4408048096673571	-1.1715724284162963	-1.992591737256326	-1
-0.38926405214686227	1.7700015401611884	-0.701940623846485	1
-0.11409696092935234	-1.7939275664363348	1.4136920491422587	1
0.01540093591406579	0.5094050841953792	-0.07099659929250035	-1
0.12905364417334994	0.477781462997224	0.5438487486544658	1
0.4879726121707639	-1.4528392172136646	-1.3291624397077566	-1
-0.18283215299441827	1.8317575493933331	1.849632475601653	-1
0.059669124139716506	-0.20622138941734458	-0.7800502823861717	1
-0.38411085634391856	1.9282271364204853	-0.21940801900134158	1
0.13242756970374678	-0.656587380274902	-0.46672259537407723	1
-0.7292781235122335	1.91527047971075	0.9328201680325799	-1
-0.9266810573845374	-0.8948698446375639	-0.6115386874410744	-1
-0.27847696299908653	-0.4248588175390462	-1.843183749989391	-1
-0.4339798885070888	1.6509294135239863	2.132709136152039	-1
-1.6550557457081034	-0.7389366287320046	-2.436965515371666	-1
0.6814921597499572	-1.4927685024480848	-1.2138413916215658	-1
-0.40843639030394324	0.36168991385162536	-0.31658157851589164	-1
0.08989385933782895	0.19759816981697104	-0.5485409259769257	-1
0.23159806900943125	-2.0090459890990906	-1.3680857926066474	-1
-0.3800794417771383	-0.8463360220992003	1.611355041906597	1
0.7889242408086797	1.5048409741508075	2.068181057966081	-1
0.17027188885064845	-0.8733701429046505	-2.124196286685534	-1
1.782601964652573	-1.9980386109601005	1.3651922222073223	1
0.4080495222292975	-1.0850053783959097	1.1061986185887054	1
1.1635971546080142	-2.067576575279854	-1.7334761984850215	-1
0.028979596461725626	1.6519237379129939	0.1950490901841579	-1
-0.39931130258991976	-0.5918339265371236	2.2522483748152604	1
0.3509933638590865	-1.8307880819110356	-0.9512630070339441	-1
0.28215911883027067	1.3112500043072572	1.9292119925591724	-1
-0.08360796440732106	-0.6449512993661011	2.2701613212337954	1
-0.6340626198375001	0.5638766622167907	-2.124797696274395	1
1.9292364794964212	-0.6367401442362033	-1.1724321480356277	-1
-0.6577229347545154	-1.474289192202915	1.142239019213301	1
-1.6186511242991957	1.9214645988852146	0.5794301099164546	-1
-2.160642669265084	-0.8262074498703731	1.1699145108535738	1
-0.5646148014884881	-1.9413614494486477	-1.313736538885295	-1
-0.7011102861079359	-1.927890561135319	-1.1344761189697337	-1
0.8121282064899206	-1.1595526636511504	-1.2568511810692462	-1
1.8168358052045184	0.9448807510398276	1.6309352148923093	-1
-0.49084988568665583	-0.1962439240250692	0.4271151831314578	-1
0.066308260444018	-0.20574172968736712	0.20886828630727583	-1
0.32114603385601037	0.935365338928993	1.6848893616895126	-1
0.785057293985918	1.2598411030278895	-0.379441630050909	1
-0.40482409388975027	-0.6693303077863413	-2.7901306222792823	-1
-0.30909695258370745	2.1440174270674706	2.1527157535394825	-1
0.9726935115718179	-0.9733892256792251	0.8215926367776009	1
0.32680471698135843	0.2835100389053832	0.38928696850007893	1
1.8846889449603532	-1.276551305669531	-2.442919397858428	-1
-1.3340847134202205	0.5793587286683689	-1.7783266788599423	1
-0.7974026951930421	-1.1651408895324553	-1.5216087218537597	-1
-0.35764993031564	-1.6754480171182846	1.5400951162908731	1
-0.12615947837554256	1.9212040383893165	-1.4348640412226914	1
1.5591552214459456	-1.0855754571826273	1.8679253141515781	1
-0.16327068018818067	0.624036873266873	0.43006500798487085	1
-0.2616173114408897	-1.6975183615082903	1.0913123998398884	1
-0.11032149615453467	0.3769834766232056	-0.2907193173153177	-1
0.8391741392712158	-1.592745956360105	0.9597945553662737	1
-1.4364510827629275	1.224764555250989	-1.9896699176948431	1
0.725300039042624	1.5443040191831061	1.494966905135451	-1
-1.5713255293219623	-3.2055308174711286	-2.5138026662028556	-1
-0.6648511073083481	-1.5916105067957922	0.2608092583971199	1
-0.0012851949698375702	-1.746187349960671	-1.2551923863395176	-1
0.1940430961322782	0.4654332795631404	-0.7854655447213349	-1
0.44749747183162747	1.7472309414192815	-1.0652784521652812	1
-0.5347570207863064	-1.6742349795872578	-0.45985228930251587	-1
0.5670315819847642	1.379662872764435	1.5796592737774746	-1
-1.0778947615153125	-0.6823468094113211	-2.6415189644130663	-1
0.5003851782115738	1.442327790341771	0.41883252024306405	-1
-1.7259118708321595	-1.3643249809551063	-1.50177027707462	-1
0.5092924702032106	1.3123238909786366	0.9653558084099594	-1
-0.20170677013500948	0.23666789928451593	0.7686890244566008	1
0.3580840524029904	1.2092245806361053	1.4756868977468338	-1
1.0878433539911363	-1.1404278875661054	0.9238512176413519	1
-0.30212803293776713	-0.8156376571314881	2.5353623250928554	1
-0.47295964186761963	1.8028230294395922	1.5043210503154931	-1
-0.9239100593034211	0.9336766039078624	-1.0402555882809539	1
-0.24458453631976235	2.110195792370685	-1.307696154398001	1
-1.3508084052889484	2.2174656986405465	1.399524649877086	-1
0.3320681142441244	2.0311197820303053	1.0810008321531	-1
-0.31424228355218725	1.6657198864848795	1.2098566838920335	-1
0.11728440996106307	0.3129062892454339	0.3107647080785137	1
1.078545109583146	0.7911948211620848	-2.3446149401281753	1
-0.24565597427827035	-1.3897240490526037	-1.8998839297367267	-1
1.7957963996380553	-1.5593852170066935	-0.6060525872806266	-1
0.6454234563358121	1.1284706870774925	-1.3574531753304804	1
0.06426166864805115	0.547470929444957	-0.37511879285602157	-1
-0.6311964725010136	-1.5879272745710695	0.8418114556621368	1
0.12009341785268722	0.66524761401073	1.5706154364723972	-1
0.8312311389034255	-1.021232076900939	-0.5166704293123666	-1
0.9467395674763603	-0.8690254433627	-3.2794345042792097	-1
0.07724086166048358	-0.3415877771586741	0.6741533476000496	-1
0.5967340099509663	-1.0505963922621286	-2.650267695357289	-1
1.4055446427256946	1.0882713781085416	-0.9770937885149314	1
-0.09465986639913065	0.22126649815430227	0.6645763137392288	1
-0.4267110331513707	1.135059631910774	1.0576237990904105	-1
1.0642597932039608	-1.0719731641609462	-1.0218097228791085	-1
-0.4135604460780193	2.073521520620297	0.9816193470920972	-1
-0.5665512252493161	1.7055008468009796	0.9108266521862979	-1
0.11848504127829958	1.2177328733683854	1.5967838879699494	-1
1.3834901553782055	-0.26847227502982357	-1.0436576161964801	-1
0.016277398330454957	-1.4565329522555985	-2.1147328156811898	-1
0.1807771828895068	-1.5630027841424845	-1.9534294525016236	-1
-1.1864323418573435	-1.98133879145778	1.3753929333660988	1
0.328821569471611	1.9930488331602796	1.471456638044956	-1
0.7181409586349722	1.926102137151385	-2.8370536649039533	1
0.19147790914494792	-0.549025921146755	-0.7949377310996781	1
-1.0388131472027202	-1.3115507092146472	-1.562542997943009	-1
-0.6535367001350045	-2.8606418009192716	-1.033122926937972	-1
0.6251041230443927	-0.5983795167431859	0.37423971038894377	-1
0.3218157788606424	0.6784654847838464	0.23810084192451458	1
-1.002292614301278	-1.1235829635265806	1.6322104306646268	1
-0.8915956302681765	1.6176150374179266	-1.043896107546845	1
0.486954878009556	1.1318046713862713	-1.0522519447518357	1
-0.41041425310686636	1.4677503914779217	1.452898962066559	-1
0.20976655568896752	0.5302626372692532	-0.3905048043594806	-1
-1.6296594811563256	-1.78898585729985	-0.9165876313887993	-1
-1.0918261492748558	0.855017349308322	1.4788076936825776	-1
-0.8613479525288465	2.6952594434607025	2.0611611936125023	-1
-1.0757224501009703	1.611751946320315	-1.672167373496562	1
1.5192695804710687	1.3045984706444422	2.2849286646540277	-1
-0.22597294596138867	1.911577861023404	0.37562806670663473	-1
-0.19387442673553346	-0.31936137288455413	0.6627805457750657	-1
-0.6865934077551014	-1.251324406509804	-1.1295143682871776	-1
1.0564448573657568	-0.8442069316191548	1.8119234294418574	1
0.9647159268299609	1.653425578270891	-0.8140076980732822	1
-0.556048365582114	-1.254471720021875	1.0468241731824157	1
-0.13663626261892495	-1.467921565094175	-1.739804524658046	-1
-0.6043011100992847	1.4833136445984414	-1.2807935700727773	1
-0.45312405256346366	0.8816751528974468	-1.4001037792192301	1
0.1996344401420336	0.6125197373911008	-0.5294634874085797	-1
-0.9619416847364376	-1.374768236466155	1.4197135244041708	1
-0.20283049359878746	-2.3356008770756924	0.7740957506734971	1
-1.124914203568437	-1.0161205090384788	2.4794950395180924	1
1.1104741460546348	-0.29483927513392283	-1.667288962392063	-1
1.258804048972904	-0.9235536647917538	1.3646473202436928	1
0.6686640368288145	1.5494840013990299	1.4221996950588884	-1
-0.015574626699016112	-0.6595258489900193	-0.5313642996074506	1
0.25868384467173844	2.5554597623904045	0.9441110547290036	-1
-0.8014520811528867	-2.0547947377159175	2.186128464974634	1
1.7161839217326458	-2.0854843156732574	1.0474608021470757	1
-0.8607287103787957	1.4276320382816339	-1.8610469042171953	1
-2.068065469802782	1.1385571358035373	-2.0804500732597155	1
-0.1626318530348497	-2.1259827014376462	-1.048676524749269	-1
-0.4085486587883049	-1.7414058327222113	-1.4921819103548981	-1
-0.13457685363507077	-1.0592958299262993	1.2747487774590782	1
0.22066350560230608	-1.5670048020712053	0.9201450778438647	1
0.840914350748985	1.1142104431438749	-0.59989611382087	1
0.5178204776963673	-1.0624626466512055	-1.1365993559433492	-1
0.8278299582498697	1.254178132985814	-3.0457642697617406	1
0.15101285111252682	0.4194563194552059	0.3006914425767336	1
-0.4619525959658106	-1.9251114116992458	1.0978691551872308	1
-0.6296841319104138	-1.3550000650317477	-1.603249194019605	-1
-1.1675399218345608	-1.067347548953521	2.122255361397344	1
-0.6156439895999084	-0.5468123257316665	-2.0382829540559864	-1
-0.04943380986395435	1.407660257355838	0.28938891927460414	-1
-1.2563159901659489	1.506980911047287	1.2982434723058716	-1
-2.113235549400394	1.725698671426902	-1.5565308431390603	1
1.3049107178547323	2.7321291856882404	1.7440910075409495	-1
-2.234647755382327	1.5243582467767105	-1.3543703207151863	1
0.9656386995317151	-1.4467843879759217	-1.485078933873401	-1
-2.189456984484851	-1.2637395387013899	-0.7255871788603815	-1
-0.48900050906788856	-1.6857737150829757	-1.5810234046472909	-1
-0.45014512494990017	-0.531950699739925	0.1997299145514449	-1
0.1435376531769913	-0.9066730710548937	-1.2438523714365093	-1
-0.1572085608783328	2.6219127733102723	0.97404630082685	-1
-1.0487752425093866	0.854928992842563	-1.8443673803827103	1
-0.017428615889717353	0.6340335010744818	0.7146506056620612	1
0.227347110470681	-0.7038400958512321	-1.9000117654059225	-1
-0.3260229531650618	-0.9086132156630603	-1.8830618495991835	-1
-0.9250086274934305	0.30864223107269595	-1.6993956775622103	1
-0.8220538595070839	1.9030753569006593	1.7595604240556417	-1
-0.6100461689414083	-0.34786507789782467	-0.3865288312302042	1
2.0039248133595393	0.8203553233546039	0.9450929196462156	-1
-0.44471991672879363	1.9667146962445028	1.9234118417460746	-1
1.234642305415596	-1.4899783992838387	1.4330155587772193	1
-0.42673169953848344	-1.3042729447667754	1.4840605880956759	1
0.08772215234798693	-0.7934240462042713	-1.5876291991111957	-1
0.18977531379027357	1.544975937816854	-3.455289860974666	1
0.7840435128405422	2.1818170323732646	0.7575592769213675	-1
0.18588553485684783	0.37367202710527625	-0.38548129241352946	-1
2.0443441062147354	1.8059853729462132	-0.7004038812401762	1
-0.8363068345823879	-1.2325093395098934	2.498355004665896	1
1.2714195760091702	-1.920539412133255	0.4527704475355794	1
0.518417232992734	-0.2581652600007995	-0.3515583132166377	1
-0.1104250297875014	-0.09438400215062574	0.6045021914468057	-1
-0.1688762527055913	-0.9620492569394324	-1.6558139935365084	-1
-0.20805682954981536	1.5430217045988928	2.0753959834617333	-1
0.32808081692828717	0.9666391996844728	1.7680481159700852	-1
-1.7034091600397414	-1.064077128041685	0.6861235939789211	1
0.18394447340180242	-1.3307138076530896	2.622226473947697	1
0.7348129277652928	-1.18412557474404	0.7756794941556521	1
-0.8352383410203684	0.8954928579548634	-1.4765948225740666	1
-0.3542880657000692	1.6243127667593873	0.5596866814664136	-1
0.3447424604815012	-0.45671492536257613	0.5000483615778577	-1
-1.5624846446517036	-1.224557462424632	-1.3056308991706487	-1
-0.16347717253347674	-1.0706260551026625	1.756501371663861	1
-1.410509282285576	1.228522663046566	0.9151331006686427	-1
-0.464288154461866	1.3509015399664177	-1.431810864120601	1
1.2980910156132424	2.5657730984607934	1.9118975383274457	-1
-0.8587748562810493	1.251822339603063	-0.5520403307393645	1
-0.1927170359995392	-1.3577451178690876	1.0584558877326664	1
-0.26711005290914475	-2.578617142461662	1.058015192340215	1
-0.345600864165575	-0.542738865348135	-1.804026464452543	-1
2.0987095532377866	1.2442676390916505	-1.2152508102970814	1
-0.5188067978282473	-1.1125770796625607	-1.5989555149503012	-1
-0.21668931652005236	1.9552693088419684	-1.1173013738676825	1
0.954269853102828	-1.1711272853393675	-1.296597061729139	-1
0.45499802120607935	-2.2542554576047404	1.6997517258261017	1
-0.8694733769949986	0.7358997569526865	-1.3389937406565249	1
0.3128923739036944	-0.46960976252992764	-0.13548002311197632	1
-0.1790323161731376	-0.7365786194989088	1.6448593540102612	1
-2.0597695816841273	2.0636889128794773	1.7151980256944772	-1
0.6391677743104748	0.7913843363830609	-2.1058619255672917	1
0.4179432214755663	-1.558913701140212	0.3415510854822936	1
0.6694924881855062	0.45481126345546796	-1.9511406815067898	1
0.5326120823317134	1.2996957365138482	0.9257116984676407	-1
-0.21529345843868	0.3007635800107171	-0.4181404733498491	-1
-0.34511786900948643	-1.2000213477586454	-0.9754832303325721	-1
-0.908726730808639	-1.8417271958249757	3.145111738259745	1
-1.77603683955169	-1.116212537556273	-2.2349699920804214	-1
-0.13448147364484372	-0.3320709806429376	0.7286727512449598	-1
-0.030767118423608922	0.25241406541847994	-0.4775510827907372	-1
-1.2691549741350316	0.7002617696743323	-1.5217891155816696	1
-0.3025021365907265	1.132674243084624	-2.460417618388017	1
0.4930265239843663	-0.18641146466604472	0.2662094980448909	-1
1.2001784012794803	-1.9979320111956562	1.098258380509904	1
0.18705819099234966	1.3341945175948904	-1.1842817823287228	1
0.5168609945044279	1.108536464253742	-1.0130288106551957	1
-1.2183680080936312	-1.453873040472926	-1.5655801858328258	-1
-1.1530644359990037	0.9423574253805835	2.1137633328387997	-1
0.6154485265444968	-0.5586188425029277	-0.3282134665808385	1
-0.12444706055543475	1.1985984430101642	1.6383984889931005	-1
-1.6696014798845675	-0.7073291346549726	-0.7602141587749911	-1
1.0261047717510945	-1.498225009043789	0.6613292150935353	1
