-0.8426787506594148	-0.8564053074721262	2.455506234463204	-1
-0.788446160474895	1.2956270897237558	-2.2882052869337364	-1
-0.46348540029453533	0.8878727239523644	-0.23823710916014648	-1
0.1243649432721437	-1.0365939850397994	1.6853167345647433	-1
0.2698803292490312	-0.7881011326905702	2.0092064255376165	-1
0.08955542949377165	-0.7195240892326057	2.5775784192031233	-1
-0.16735911040068607	0.09750893336430654	-0.8004160689320422	1
0.17561766437458542	-0.03505958350926285	0.7773946663210229	1
-0.6672997480202723	1.0763066100656118	1.3690356649519315	-1
-0.522108016405513	-0.47014553307569973	2.0673492658720174	-1
-1.0262861711220348	0.985422986358824	2.2245454998463328	-1
-2.291940865640963	0.17002795901353737	0.07119423057089022	1
-0.43167921018413846	-0.26900750724342465	-2.7242065594127975	-1
0.6692254195876322	2.201805560076523	0.3287939361251564	1
-0.20152386548997667	1.1901747170349943	-2.766883703735181	-1
-0.4328423654687269	0.1309589814470738	1.7175343025145615	-1
0.6892239222730374	0.6159056226233437	-0.06528348741864644	-1
-0.25653186473517503	-0.26373712792912674	-2.378024014335973	-1
1.089883021827547	-0.9590104877581362	2.046730146498175	-1
-0.8584491166632701	-1.0306207178991407	1.8777679181797138	-1
-0.9190853452285414	-2.845604291194935	1.1100468168281235	1
-0.8671037131561645	-2.07394880640279	0.07825658916355475	1
-1.2638454516369508	-1.6211300739232586	0.39387829686933673	1
-1.8000486314437394	-0.48055828684091817	0.5318087850819505	1
-0.9875980207121858	1.1737602958751265	2.7075197468022636	-1
-0.11422096296817451	0.2120455501756461	0.6606372650760561	1
-0.6924657287243564	0.2884715496213274	1.7729184213524842	-1
0.8102993282972437	-1.66297575643828	0.5627444653690251	1
1.0546786491888782	-0.23969915503802014	1.3715171536449269	-1
0.09953995911621594	-0.467573146432011	3.600263767482502	-1
-0.20260661201434504	-0.01581150741772155	-0.7315250544500758	1
1.893745639216174	-1.331859400175706	-0.11768292241001099	1
0.7636354649517676	-0.7418157824216367	2.471092312917994	-1
-0.7976282003262055	0.35607027985713136	-2.7389430176645098	-1
0.8975164288481899	-0.4517686207561809	-1.7166950246262247	-1
-0.5138867963125782	-0.6355590813500942	-2.0665661904967902	-1
0.6906109197183684	0.45407856226159105	2.0148656186277507	-1
0.006140496650842257	0.2594632754906595	0.422121490737516	1
0.2130308941978204	0.09116998642226991	0.8980198489580182	1
0.2044885738034652	0.8556136263740091	1.7373754980371698	-1
-0.0008174262416659789	0.6692378879700205	2.5884892531836923	-1
1.0998813450102911	-1.6796843822346856	0.3121343132009378	1
0.35927674492702866	1.915548405355972	0.25070828494457476	1
-0.22192948148227942	0.9937672208587758	-2.220731484951325	-1
0.35642579121850176	-0.08762124900221957	2.1427038686405093	-1
-0.8475042268411603	-1.5923965219434209	0.6890327490308943	1
-2.4045669471523894	-1.4050268624446192	-0.21520580020024305	1
-2.9071180706528494	-1.3633056846712484	-0.607150619899187	1
0.1418539726614047	0.02267116776169016	-3.691698564465022	-1
0.5529335509685731	-2.1576034343163215	0.7162077933483777	1
2.131470460888798	2.455330162419431	-1.1010027777797242	1
-1.0964472201706525	1.0424298476340002	-1.8897141007825935	-1
2.2694377587848953	0.7706008533555095	-0.2297733811256998	1
1.5161009409591093	-0.37065425873510705	0.5656808685726249	1
0.8669430169241104	-0.8723878509126575	-1.6165603071707961	-1
0.032333353328035476	1.124496689297394	3.098482682081739	-1
-0.510131816717637	-0.23616643152494754	2.297108596711927	-1
0.18860639065636106	0.5586197186482552	2.4022380811421513	-1
-1.0692387552685583	-2.2736966952149897	0.3902562650997461	1
-0.47587923910990315	-0.09276049272687105	1.932209277526039	-1
-0.45331365183680056	-0.12185538413266228	1.9555340180433043	-1
0.05853879362498811	-0.07705559602193082	-0.8097780378692075	1
0.4898740776583787	-0.48272267393488316	-2.1978580289975436	-1
-1.0990427360215103	-0.1448964746086785	-2.105669196129369	-1
0.3477930797456332	-1.772653071944507	0.15205579163075786	1
-0.12084324766547763	-0.46210396041572865	0.13947198811830275	-1
0.014780230241591778	0.24736381422802844	-0.7522639432942916	1
0.299730020003025	2.3496615512008674	-0.45523360275021957	1
0.16273787797496256	0.6730852667594406	-1.7176790507638484	-1
-0.2747406380712333	0.021790547063794977	0.8172114695690067	1
-1.5963833900348094	0.6094427094555168	0.16424543699855834	1
-1.1307674934743501	2.782235579343223	1.5269012297532047	1
-1.0715954735972701	-2.0233943530251155	0.7576108056690082	1
1.3882720797359214	-0.7219480800073975	3.001051796576274	-1
0.6111923342254642	-0.5626606420051036	1.815241830033906	-1
-0.6130181341651811	-1.7125393081921327	-0.5584695175178832	1
-0.5490689311512483	0.6041119595738101	-2.007743455138271	-1
0.21747880133055653	-0.6932788458775428	2.891162305852357	-1
0.9638409833837298	-0.09211525277971172	1.6697690038034656	-1
-0.17525012294879613	-0.22756702841121285	0.7002808968000379	1
0.2980925684577997	0.008564699753808755	-0.6405735663703965	1
-0.6216676199689187	-1.846935018209618	-0.07233086181102319	1
1.8064489830006207	-2.2995228595699397	-0.6340871006493538	1
1.6471183694352751	-0.8230654977677665	-0.8999016272573237	1
-0.7952692070122631	-1.4744853933877395	0.4357456640712831	1
-0.8536298872099902	-1.5089897912160275	-2.371029215989654	-1
-0.7295550690587912	-0.07319238225678887	1.644312709713707	-1
-0.29718340263632886	-2.186891323234149	-0.1588862875834956	1
0.06560782143853774	0.037452601662649444	0.9262185334378231	1
-3.168558856791437	-0.4043798589791613	0.3389208337480322	1
0.33398963403805215	-0.2638618435686545	-0.737544265704107	1
0.3976097349651864	-0.9728632613342504	2.2851555576415277	-1
-2.319709802791631	0.4004426088925504	0.1028569524923835	1
0.598322002818053	-0.02478143713865797	-2.2345452989529084	-1
0.3419194910123189	0.5434896010049668	-0.19149623002159957	-1
-1.6679716012804395	-1.2990996243059696	-0.24370607261963972	1
-1.4186391590227918	-1.6965787954034022	0.8026646232316281	1
-2.546378224542341	0.1910761717982203	-0.6254682636058394	1
-0.02795516421966713	0.7480289467604991	2.6123997830352828	-1
0.0806284856263384	-0.838670294686758	-1.626218587740426	-1
-0.7959494889157281	0.31626938184944703	1.881077665720536	-1
0.1676031847154395	-0.22434685816297667	2.871941303981966	-1
-2.118826453928374	-1.910459301920125	-1.003498073124122	1
1.7235607861509843	0.4013284468805881	0.02927262519925037	1
-0.20050527808309604	-0.601127041372904	-2.5592559155677614	-1
2.4934784793930413	-0.7455847978459507	-0.0979342151639138	1
0.33113458644089894	0.15810064951372818	1.9761423744202298	-1
-2.001244370405156	-1.0182700799874522	-0.8242865957857657	1
1.412985617639076	1.313284755713366	-0.26863836596928065	1
-0.07723051096780469	-0.05750873066767492	1.0340009685313623	1
0.001829947609070669	0.43924945756440326	-1.400527057763089	-1
0.6642735680940693	-0.25179275051150735	1.8865556738760205	-1
-0.13216958861106606	-1.3307380077983515	-2.5289781941423986	-1
-0.03809612347807861	0.8308863037036572	2.8806460494500428	-1
0.9660398343242106	-0.6145136885624445	1.3798504961925657	-1
2.8234950591089474	-0.15376502619042398	-0.2583717339895712	1
-1.6450744425669765	-0.442333102527511	-2.2805570907763864	-1
-2.8114167896434283	-0.5136366914583986	-0.2770120816677888	1
0.2517989286245725	-0.4918232909804816	-0.6066670722822471	1
-1.3589124027437078	-1.11529160349624	0.3335896429555446	1
1.0942430266156227	1.7520849997692982	-0.17333864644066588	1
-0.6302457697208099	-0.3557597696998428	0.06080082508319397	-1
0.444107655959366	-2.3601805800852627	0.04992697656393569	1
-1.6077893811345954	-0.4765715268785239	1.3322881256323036	-1
-0.30954740314475854	0.22376833139565744	-0.5207301304745037	1
-0.3023455722543287	-0.0853830294886088	0.6960600790831372	1
0.7514873352967059	-1.463851801351918	0.060777325648547535	1
-0.5940821703756302	-0.08101743704152939	-0.20005246905911728	-1
-0.02803293750047858	-0.16742137260335796	-0.5145714050230075	1
-0.14821158597769526	0.45493094816496005	1.6559432758408683	-1
-0.5360636534692359	2.3024740789351754	-0.05520670549257293	1
-2.898017120318796	-0.1068609986144614	-0.792385501688092	1
-0.7065141698908491	0.019064775734436185	1.9868666284049656	-1
1.9329008338197498	1.1647045123696773	-0.3930869160573272	1
-0.8958827713042512	0.22120020324293363	2.2439078946993862	-1
-0.5639597169831595	1.009641914834034	-1.9511306580681798	-1
-0.6830857660649912	-1.121078974374221	0.3868039700182694	1
-2.0277732158394777	0.8745572622029241	3.4532938323412226	-1
-1.0730821247050437	0.2449357834326813	1.6189485986767354	-1
-1.1974093167429951	0.7440973554313004	1.3960989533826256	-1
-0.40833609890487915	-0.49457012118503735	1.6107044519241496	-1
-0.08028113629318777	-0.06713504236317339	2.003728570750848	-1
0.25358676788101175	1.0993457116408138	1.3602586967121497	-1
-0.4481709453360913	1.2635849568895345	2.597408059145675	-1
1.8292591147957324	1.2150737543328738	-0.6907129894052754	1
-0.15924953120935778	-0.2030087978114525	1.0123633884804322	1
-0.5375806463399663	0.14557836109811642	-2.260872832362153	-1
0.5423085347529238	0.270061821219388	-0.10142962448934795	-1
-0.7039167098009846	-2.1500815249944245	0.21898682018892845	1
0.3896207899799417	2.145760719781281	-0.17806784318538715	1
0.2876685607999457	-0.7355131794277127	-0.3456170523157189	-1
2.123647546267237	-0.33348847247173047	-1.602429513280287	-1
-0.1031703290732077	0.06677277647356526	0.7256061409431379	1
-1.1534042749013476	-1.105043961306836	2.095450473721571	-1
0.6133214153884479	-0.841980170561405	-2.136725458901649	-1
0.4994299524694715	1.7147785234249682	-0.23516691642964183	1
-0.38615813804564353	2.9449382480415864	0.4304187308009552	1
-0.08507133478633339	0.1850576676713772	0.9111869776011814	1
1.3010013653024008	-0.9889584925814433	-1.9265193519081802	-1
-0.1772333753267392	0.41043262048166423	-2.0310583271130827	-1
-1.4333305896163466	-1.0002047256375455	-0.654723810963091	1
-0.025474882053587396	-0.21782735279118542	-0.4257228876443643	1
-1.838380847825336	0.2799073825515389	0.42842408226350426	1
-0.37605519038055407	0.18052674973628663	-2.105053227490678	-1
-0.15020029296501433	-0.7231789513914615	-3.342657879453334	-1
0.6207114440998202	0.9809928463435423	-2.5167457198758854	-1
0.8807031948663122	-1.77720799064378	-0.42114010460021173	1
-2.03272964004721	0.8087319856269227	0.580526867382686	1
0.13306960342879476	0.09796110429108323	-0.436968847768654	1
-0.433058432364974	0.6767410608450325	-1.536650684559504	-1
-0.7321157762200405	-2.8323928080659413	-0.0589209814931512	1
1.5093200302090668	1.131829434345991	0.16758904232992894	1
-1.9791158447736266	-0.6119707352704878	0.7757931182611374	1
0.3533207604543924	-1.2103430856853867	1.6600784535317037	-1
0.00027083687987371343	0.320884899640919	0.8534947336417892	1
-0.1275250324150786	-0.08517369894550068	3.3978578094535026	-1
-0.32949872124827473	0.3271426212408437	-1.4621337771791354	-1
-0.7592264552273387	0.26598248070774266	2.341749904981927	-1
0.6698213596002603	-1.0751267483288982	1.7393250718105087	-1
1.2284627886296557	-2.1904594592730273	-0.3950478008112237	1
0.4557513958844641	-0.29527893328049876	1.3316494488036437	-1
-1.2807543640829957	-1.7508407478914039	-0.7024689203685863	1
-2.126001794332035	1.133318823103282	-0.3837502665158538	1
0.18424900597925345	-1.0647645877880032	1.8496690413223655	-1
-0.5633284760385245	0.5625843399202161	-1.5456440969464018	-1
-0.10889816205358611	0.03227358994296767	-0.8209017620759669	1
0.5917812693675821	-0.43895026551501304	-1.4806628541914355	-1
-2.158473828539845	-1.2504528440821074	-0.03135175350446667	1
-1.0772470414581512	-3.0695739968489466	0.3750729437151289	1
0.9231252221473893	-0.21137354145728848	-2.879480265597836	-1
0.35922128275680226	-1.8557532667304295	-0.3685644470634212	1
-0.4810245861619511	0.9310377907357303	1.5368480067349874	-1
-1.3174708306234566	1.4279793714287836	-0.4477464679465062	1
2.2494806873752364	0.8936337277144034	-0.366440494194621	1
0.8901263814833199	-0.07852568755730205	2.5442974472057664	-1
0.8609653930520937	-1.6351561073202174	0.20850825706516307	1
0.9171281202826429	-0.2939531479253219	1.873413066428794	-1
-0.497500589804472	3.1074910401024196	1.219480188044927	1
-1.6624826003486968	-1.6271135552904523	0.1855124644167095	1
-0.3637149344234927	-0.0980294256615227	2.302045792795317	-1
-0.6593340476420244	1.8579928375057566	0.2779298590095635	1
-0.2265709160115494	-0.5931885643886464	-1.537059805775867	-1
1.345001244874356	-0.20038269976235099	-1.21819882853627	-1
1.5017897928510722	0.5398918819586203	-1.6482832321245706	-1
-0.08785945032472475	-0.025558262905251608	0.4812255262169998	1
0.29238285512965845	-0.6959626039244171	-1.854415233408294	-1
0.0016231198605432145	0.1481395516129571	0.45985672838393593	1
-2.0189891848769723	-1.8573661001561348	-1.1468941188726798	1
0.7620816957055075	-0.1497245729085257	-2.395606882166416	-1
2.5367938418683376	-0.9370741181905955	0.26933454622611275	1
-0.27090879703105997	-0.08986432781479524	0.025187784020656075	-1
2.785013847783335	0.7355095286935374	1.4973418855420082	1
0.6306026770379494	0.17668520882646946	-2.26704024855508	-1
-0.007443717582581061	0.28871721290661645	-0.8195632555313452	1
-0.9054258682041922	1.7634523819103496	-0.5951784487144987	1
-2.287584886185335	1.2389630303759813	0.13388642863722708	1
-3.0392872500286394	0.694858937647453	0.09804682786127801	1
0.19293787761795797	-0.002021271216650486	-3.569254940070414	-1
-0.9677079608969562	1.0488770288132296	2.505504708684869	-1
0.5036667924249212	0.8175684947901964	1.8449587050424014	-1
0.220954114336736	1.3149483162981195	-2.2407745085968025	-1
-1.5489925248223555	0.6493344339875605	-1.9174254765379086	-1
-0.3929383427404429	1.5313064689999718	0.7099309144082365	1
-1.0264130635831248	1.1920875892168434	1.8808294049123704	-1
-0.5814734648109622	0.3514513343301654	-1.7955219828698958	-1
0.32118266523073047	-0.26583348301202403	2.143765201151102	-1
0.5155458487437795	-0.8330559964284225	-3.2347576946328127	-1
0.07820596051705146	-0.419298991717324	-3.2260423272074505	-1
-1.4960033082375812	0.502656469170432	-2.0215364258731827	-1
-0.30952512238881946	-1.7584126521197048	-0.32025615063381907	1
-1.6552391571749412	-1.5501690050527892	-0.3704714625363361	1
1.539058098641764	0.09811973928976896	0.07022514242370868	1
1.220767479728018	1.7789165663806514	0.28449846386398225	1
2.6554653300961704	0.48143469022708435	-0.585595527016581	1
-1.370576300656883	2.3525899630378624	-0.1940315977753539	1
0.4124887053505029	-1.245896781799135	-0.5223285932104618	1
-1.080040304237411	-0.4021608889517939	2.525249606792011	-1
-0.829328891530024	1.691469342133848	0.7803257755522441	1
0.017197294688370748	-0.3655996508259163	-2.293382822548729	-1
-0.7733345251518947	2.4549076157812966	0.34799400148092696	1
-0.8402554431483673	1.0386936644362763	-2.711365242230036	-1
0.7863470906996858	0.9367595749026164	2.2594488021620234	-1
0.5641630583484938	0.3268830684222948	1.7603635115883716	-1
0.23040362501766573	-1.0741985008570996	1.2558270349131293	-1
0.7609056527964496	0.2089881866978837	-0.09051430107764524	-1
-1.4107177963040602	1.1525354912015227	-0.13203072060451992	1
-1.3591468961680562	-1.3467452424980273	1.973982839533437	-1
0.6981018582800873	-0.22622597653957235	-1.9871517587888328	-1
0.7316375568392797	0.26461426771608215	-2.5932855097506557	-1
0.2359647764669116	-0.03082225929124563	-0.7628345148942302	1
0.7020450474123594	-0.2445908433046128	1.9980935943017901	-1
-0.9336783803288228	-2.1960151250987727	-0.17147630694249777	1
1.4685144106457484	-0.8015592245601774	0.35863666274885775	1
-0.4801028742450396	-0.8255146684873209	-2.0623657612692092	-1
0.1502221279977077	-0.08725613246978728	0.5144046285798419	1
1.5189226332770476	0.6405198880478156	2.011630981497964	-1
0.9902381402157978	-0.21117892229923882	1.8261899579665877	-1
-1.101788971200794	0.19840453938642455	1.1529022245808738	-1
-2.195222278052742	1.5700991207110193	-0.2593302092746719	1
-1.8725875066781805	-1.4283658381585294	0.2509719066573843	1
-0.5700104638886823	-0.21935431825026966	3.265235926070556	-1
-2.027189125154884	-1.33212906359809	-0.3078629741114735	1
0.6784118650838001	-0.9442809654659472	-1.9619777666246223	-1
-1.466393727872112	-0.23074086473777908	1.8225445584884399	-1
0.11143139632532051	0.5910988004221363	-0.3015403463165318	-1
-1.6615936246929313	-0.4057427757666223	0.8127879876269974	1
-0.08143609077962591	-0.8236178337792746	-1.379805157922176	-1
-0.06682671694046717	1.50630449085925	-0.24125539873401786	1
0.04934368010816066	2.0604002092595812	0.8011154823348013	1
-0.04770038983906831	-0.23821387317614695	-0.5014893332465382	1
-1.1445082666889281	-0.43406756620274933	-3.0955598510032925	-1
0.2998619497985557	-0.09534734401085254	-0.6779759739462263	1
-1.0151071773110973	0.14523580841221026	-2.9158703612723698	-1
-0.03489847431760895	0.891490961868761	1.711503628910296	-1
-2.744834079415032	0.808199956133342	1.7296128045018513	1
0.5711493729002849	-2.214491677901725	-0.5309164394548574	1
-2.1503461115323783	1.5906287984069678	0.09610318947726698	1
-0.34804405596307947	-0.012523230660899061	1.8074942991796552	-1
2.4039966102580985	-1.3879032214202738	-0.9018708850399707	1
0.32619328108864176	0.5805658141513769	-1.6366360043792598	-1
-0.6378003883463694	-0.1532370848695498	-0.00076246917273702	-1
-1.5932427706353094	1.9254322802481783	0.1205776846842248	1
-1.589313408637305	-1.718778521103764	-0.03456397572209536	1
-1.5344864200626915	-2.100668947118307	-0.6459263120841986	1
-1.383603493124813	-0.7417291960084977	-0.1705282841539021	1
0.44830359088973143	0.7755364433997317	3.2986368816003813	-1
2.27857324056011	-0.5360422627063101	-2.0456198595769397	-1
1.923342165864124	-0.8622985122454673	-0.3392961147018052	1
0.675280878335967	1.2870205281393732	2.2951209006069226	-1
-1.3036768031700756	1.371596087787552	-0.25693727378990777	1
0.19316856235956814	0.6381369172058022	1.7590843963719802	-1
0.09105769002433253	0.30735586453049213	-1.6658601330448501	-1
-0.9111477325388142	2.0995695724079604	-0.041543166139360856	1
-0.8826632166659651	2.146243919058968	1.2388999018034355	1
-0.030841051057714303	2.4822271483473033	0.7417162573305893	1
-0.45629101612617484	0.18947786735454547	3.112791243037679	-1
1.6563436093566697	-1.964713737761712	0.0544511313922346	1
0.2507426925614699	0.26055686555008845	-2.2181037212111137	-1
-0.8386161814227098	0.0344578312020108	1.7307943607943255	-1
-0.4491823257520318	-0.1795659944316326	-2.854790187009811	-1
-2.649370373009538	-0.548665588144094	0.3127798050510493	1
-0.273386671097776	0.19928188663268173	1.9322821509759565	-1
-1.1922439633764061	1.0601137276645463	2.503220502396821	-1
0.8535831877281237	0.7586708269348874	2.9998596112033162	-1
-0.43978617494576167	0.05754749802010021	0.5755052199074205	1
1.1750072899578783	-1.6310316011796022	0.0809818012545957	1
0.24371246519978645	0.28009505213580826	-0.730241740106076	1
0.13578225969905744	-0.3655482719663806	-0.877893347504858	1
1.0880652210975899	0.265538813733943	-1.8794986770198816	-1
0.9143330079362294	-0.25299166414256197	1.2023865945616026	-1
1.058914340316582	-2.332536902191824	0.6511761786368637	1
1.4938921307211077	1.73993353617931	-0.5139719742838111	1
0.37385035206055334	2.122950578307115	0.5552520203000944	1
-1.433507645802239	-1.3530125821081618	-0.21801137576331953	1
-0.09978288373659225	-0.8551345171052791	-0.007872994059979424	-1
2.2529608342253558	-1.0274418469372046	0.5711938725424891	1
-2.3136572669667075	0.41194796165186914	0.2618221788281131	1
-0.8618173633805765	0.36474323072205833	-3.449535116709293	-1
0.2702571971804282	1.2639210036396102	-1.8808380760234629	-1
0.7985575741751646	-2.2518523831825963	-0.3368452719465925	1
0.09712380821870631	-0.035312317584492055	1.7337945499224252	-1
0.38835716392950276	-2.1677093018363225	-1.2133364889942995	1
-0.2424359585856379	-0.9221213388846634	2.021689994699723	-1
1.2932578479245636	-0.30411785040952594	2.0243880008224764	-1
-1.303702149803234	0.9291338264920704	-2.744157473193463	-1
1.0959739256267365	-0.38670229153167146	-1.9556580147448017	-1
-1.1593528702825322	-0.8509295253441391	2.0917947900634584	-1
0.4230321530446015	0.5713138265600314	-1.9878754737542832	-1
-2.0520370165803454	0.2793761291007226	0.8970786080995898	1
-1.2230768320146468	-1.8367802904497248	0.08610984369190983	1
0.08446897783769347	0.3032331085326466	-1.7459274325889529	-1
-0.11368793426189283	0.29223803585479047	0.6595206334384002	1
1.7273130599773616	2.4244840851032285	-0.977463903464602	1
-0.28779214724535224	0.01704064606878676	-0.5853956647333268	1
0.13276798559210098	-0.1108380890174565	-0.5478586276053631	1
1.6648855095738764	1.1223012485200192	-0.22763439955925457	1
0.9520232294882262	-0.5575261340646029	1.4745089287329636	-1
-1.9237317390822124	0.2828997560974669	0.24740096723979535	1
-1.145914456204448	-1.0667755323688624	-2.73482124541734	-1
-0.852811647537886	0.5023067350460254	-1.47416613257652	-1
1.3480652799615735	0.34571913594867965	-2.0052762219082214	-1
0.6143858671236351	0.23142701254971781	-1.7420150917165165	-1
0.25443945724681966	0.04457603781224446	-2.241687883542497	-1
-0.8161086017553961	0.7277897126172154	2.060573250188177	-1
-0.2391575530493979	-0.15762527206151744	-0.8152542529726509	1
-2.389100353424252	-0.610480095931155	-0.8414470070321806	1
0.12306533780828788	0.009377298166654197	-0.3906602135469533	1
-1.1531182392424184	1.9747430779754294	-0.49838542812538134	1
0.11642990842149425	-0.13542497830228825	-0.6082192614346479	1
-0.2925925620302378	-0.19171692581501337	-1.840488591162005	-1
-0.5207051423069686	0.010292994557977832	-1.7367081661317891	-1
-0.8620210470830829	-0.18907207817037444	1.3244890566395362	-1
0.08876652755361082	-1.3009132007062414	-2.628512397055358	-1
0.4459100582310601	0.08785798733179657	-0.006001987254716669	-1
-0.21054239937581032	-1.5839162312389852	0.43751367061402435	1
0.16772614513927406	-1.0331851836798678	-1.9655706303251663	-1
0.12622946252136671	0.9994632028360404	1.9448020473634235	-1
1.2994846168947032	1.2942515273399338	-0.15337788683888232	1
0.233126124459235	-0.27859324270616764	-2.381625550927184	-1
-0.4470743936796113	-0.12585565336134458	-2.912925636984557	-1
0.3947035409050328	1.1883318963408163	-2.2748450890355114	-1
0.030503217378055076	-0.2955037003381991	1.8730282247001053	-1
-1.6068483680351417	2.1787899072486403	-0.25117959867879325	1
-1.340338185376921	1.7529103007978257	0.9920529733756569	1
0.5687287369154024	-0.22950427889667624	-1.7493004533646381	-1
0.43766096513949776	-2.4479313150455564	-0.015487355063052969	1
0.4040492696341258	1.0545099502009652	4.188911218903061	-1
-2.2421946599767764	1.1900184167688304	0.40543191292300196	1
-0.40714143945926823	0.4480750784027856	-0.2067130002471604	-1
0.6614395242479851	2.4557025707356526	-0.12237038961313261	1
-1.3270738017964645	-0.32570683744311235	-2.3893702227599163	-1
0.1273739631705712	-0.3718559998881501	-2.5772991605962914	-1
-0.2948888732261805	0.31757758719053064	0.870651221585959	1
-0.9384575198948835	-0.0938439936892973	1.8076184923902472	-1
0.14627789030884467	1.0416822219185702	-2.094760080874133	-1
-0.009088920428127038	-0.30088375366017905	-0.48841390991184364	1
0.6886393834198165	0.5512075762973575	-1.4810489092671397	-1
-1.009516833984589	-0.865199825103439	-1.9832987288952602	-1
-1.3672108823161917	2.85042879770697	-0.23843089190791306	1
-3.2006797605157966	-1.5460938823156116	0.09356397634848082	1
2.268519076942477	0.664462186659185	0.05002659917423694	1
-0.552707486158189	0.1314748221775019	-1.650440702414083	-1
-0.0850312421673811	0.046780313095918194	0.6807354646911536	1
-2.7671019437184263	-1.5764718679306338	0.9562738597887664	1
0.0014222008067532393	0.10448266434962628	0.5375867129020205	1
-0.18165855810836443	-0.4786101184839967	-0.15261550943622804	-1
0.34924116993080756	1.3846174489055703	-0.2334263141283025	1
0.0991269497498162	0.8126625262890596	-1.9107241673040176	-1
-0.7023897956777067	-0.17578891558502224	0.07386631206833386	-1
-0.05269792871121101	0.25420039943874095	-1.8538352810088807	-1
0.7628576141560212	0.5098241955771415	1.977215953355557	-1
-1.522276429535153	-0.17027695701233497	-0.4768857240150388	1
-1.7895254551930826	-2.3701557020568393	-1.1331742673658203	1
0.8192863245357167	-0.3175616308241998	3.021427378240441	-1
-0.45919354271380125	0.6859880818646477	-2.6329378276822664	-1
-0.027388216624373508	-2.8688917743438576	-0.2559575762050896	1
-1.5704211983016594	0.9791442325167261	-0.9633852253319413	1
-0.3372404359465057	1.7548534167262	-0.5005523196798265	1
-0.5712186419465886	-2.775806742587444	0.6890652123732784	1
-2.1331835509179164	-0.1518497170607123	-0.6926207166446422	1
0.4693461430688137	0.3933137684963957	-2.329830293397767	-1
-0.08485403609489656	-0.08037471466487144	-0.6914553832041662	1
-1.9879165427758516	-2.0487040789859647	-0.43648542682899427	1
-0.6793447938053864	-0.6113145762063081	-1.5634956103357318	-1
0.9571857775355324	-0.6501542837375823	1.68994742465146	-1
-0.09870475961383633	-1.2406442760577385	-2.250902059349336	-1
-0.2116510432789277	0.43817343135106124	1.855854306199434	-1
1.4881591112931065	-0.36488974617729597	-2.030923871196005	-1
1.1971772774756206	2.158023601657959	0.5832442519885993	1
1.2979345269750313	-1.7851762044538813	3.9335425982202503	-1
0.6890870620712177	0.60822740361947	-1.510689849880849	-1
0.5152978140005846	0.6304734046247327	-2.259208449948082	-1
-0.07664094624107613	0.8282536913378649	1.2970965089004043	-1
1.3412248992671687	2.501289003293412	-0.23329006831967766	1
0.09934904334393505	1.5966919521435337	1.6576929252115584	-1
1.0747375972307232	-0.15000098702626308	-3.248027594634629	-1
-2.165900132302075	0.46239293912219215	-0.03500245439149572	1
0.7183685917609545	-1.8234592050952552	-0.17596585493495143	1
0.6584055595784049	1.6634319059031826	0.3664428345699311	1
0.5187461419691106	0.44461611479053914	0.15283900721615448	-1
2.142653007395836	-1.6296689333905112	-0.7105247981752241	1
2.131514073940673	-0.5289131131775217	-0.6833516083773614	1
0.03671592584349631	0.03346358386838571	-0.9878725398863155	1
0.09012693940157018	0.2171179718033741	-0.5816159138969865	1
-1.896975141055841	0.7160548393314997	1.7591321289820383	-1
0.3734553442316723	0.34549920572123854	-1.7236734422033253	-1
-0.05938660399911741	-2.406749691881336	-0.1396245254394905	1
0.296432876040355	2.2151376470889863	0.3357660568079498	1
0.701157620405422	-0.07515431415227852	-0.03744572027751121	-1
0.6208857003034659	-0.5594792607964861	1.7326915538353398	-1
1.3264407435481467	-0.4824165239418739	-0.38506971581555877	1
-0.7269395326078503	-1.1363711764681066	1.4801135029898358	-1
0.16029214990040716	0.13968403378764863	2.1104442598736184	-1
2.0894056006947075	0.669577778002555	0.06551374667407686	1
-0.16589590316193353	-0.348886316477581	0.6679355576350909	1
0.18509476879117748	-0.8746630632550283	-1.7687558620619601	-1
-0.4063197928262534	0.2970743296421015	1.9171946735727088	-1
-2.2863651344672205	0.8084137845392333	-0.15577552656751859	1
0.5298881480936649	-0.08267084369329929	1.3865574615314467	-1
0.40132163718864755	0.34983157004385457	-0.8508629371339084	1
-0.025848079558937212	2.2783843647888893	0.10592044157751473	1
2.3817319742441985	-1.905567441715909	-0.1008334233207924	1
0.18800988482175907	-0.4147750170866855	-3.7687205133225348	-1
-1.8253098967136794	-0.6306134256507966	-2.068745829594979	-1
-0.7901223497742962	-1.0361562113775806	-2.6268161480518373	-1
0.25069979201127734	1.1151716110010386	-1.9892558918385719	-1
-0.802735009837638	-0.2380776316693797	2.8205135217638135	-1
-0.6620550495479008	0.1865255578301322	2.1880639976048415	-1
-0.05928142244132383	-0.33998105773079484	0.02655399037791365	-1
0.6365861735812248	-0.440704683020037	1.9418863996119662	-1
0.06962382271283087	1.8786270610630806	0.3454417572311226	1
-0.9885537073274014	-0.37462918950193	1.9028552644700885	-1
-0.5320914782806349	0.1417142511956554	1.4033570992690658	-1
0.2348520234016588	1.7558710803321422	0.877763414547697	1
-1.0563285098008925	-0.7204226432580761	-1.8215331992204107	-1
-0.3017869261614558	-0.5388023233336747	2.066752613253827	-1
1.4460099614461388	1.4830987167558844	-0.23895434826199194	1
0.2667702303227757	-0.060523599361414694	-0.9324010289268811	1
0.28351225458489915	-0.12701805075521402	3.70530763780458	-1
-0.6381663701033413	-0.4596335623363361	2.134827601494579	-1
1.2654974322721086	2.3944943849807796	-0.025764022466514415	1
0.18334366891279566	-0.48035141476193843	-0.05645015274765597	-1
0.07030973929637492	1.0282740711767717	-1.62090530687432	-1
2.044400777610487	-1.5864065347438936	0.4798823128953113	1
-1.4071070554886425	2.0406594707742953	-0.2828937712944776	1
0.45490572003572227	-0.27265664493868813	0.016155868892764515	-1
-0.07641675870023207	0.20641103589239732	1.538230229957522	-1
0.9808633140710779	-0.9749196326244745	-1.9622323018499843	-1
1.770771118818907	0.8556842098054708	0.8375986120773287	1
-0.31258031687127774	-0.3434052277733158	-2.4266095747164034	-1
-0.8768736930558655	0.25539753107880564	-3.428233458720154	-1
-0.07131227363927704	-0.3964992553192474	-1.8345425723630626	-1
-0.048727399371128646	-0.8779978542038269	-3.1504040430016342	-1
0.6196185914266006	1.3077820440660783	1.443521704645366	-1
0.01025202708546783	-0.209877860375002	-0.48666619214223844	1
0.11811172409797183	0.022944944066546357	0.6430002596655419	1
1.046339173289473	-1.554600444910077	-0.42104182196151774	1
0.472968628925899	2.0731268974405994	-0.8299186633884796	1
-1.5263240262768007	-0.702014083036972	-0.3116992976417754	1
0.1798482817847702	1.3837998740076287	-0.11655643593787435	1
1.0001403469389043	-0.8128060393073036	1.4061262277608106	-1
0.07543100414082571	-0.739170336654515	-1.9663114747088557	-1
0.18521328720527708	-0.5820324827710126	3.0440164389135242	-1
-0.45993481608837616	0.3543487390588463	-2.2726578537536017	-1
-0.008806608071950883	-0.09099442210388026	-1.7107022293847163	-1
-0.3766873486778938	0.558289502233137	0.16098024019220017	-1
-0.40890911467174923	0.10233204152526897	1.8290433562517685	-1
0.5315689727955963	1.333956660566939	1.8042780075301146	-1
-1.663514639945823	-1.9617581672389648	0.1404424637534556	1
-1.731871696101328	-1.9197923578020746	-1.1261200277766434	1
2.6327595497760896	0.8116855474904899	-0.2547799423906746	1
0.4301530640742406	0.24148606812358545	-0.8959913306922662	1
0.2706594216009232	-1.049343899050491	2.089815289148066	-1
0.9640683296792822	-0.7848542290978882	2.3035782846034243	-1
0.010309848708107304	-0.5249387125028548	-0.9644122347705963	1
0.6786604755654198	-0.06708399329642495	2.494085697297445	-1
0.3623187475599019	-1.6739207934376794	0.6659718524321983	1
0.7012892765574976	0.42106369095190577	-1.792471934618442	-1
-1.277729292782289	0.9239498277165865	-2.2521844448926873	-1
0.357082518565192	-0.03215799479344019	2.418175578202353	-1
-1.0399882338260262	0.9589735072494415	2.365657517842379	-1
0.5258311672771495	-0.5342007614803893	1.9470419351321255	-1
-0.07576520796163677	-0.9241339936106607	2.134798843292271	-1
0.7592507292917078	0.8042626467187992	-2.0598836635475135	-1
0.9089921622728719	-0.8692438283824546	-1.9518631689923926	-1
1.082750666835096	-2.285081289810435	-0.7207190202972419	1
-0.11203802508465704	0.36416265268840803	-2.4882866449817707	-1
-2.3438287014588215	-1.047910563656499	-0.43285991384455047	1
-0.6168038025330689	-0.4907241684341854	-2.3323812684871763	-1
-0.6809004586428768	-0.3799208319171689	-0.028235852914103077	-1
-1.1724178809517045	0.6531099650032066	-3.665350099960177	-1
0.46334129086282716	0.15439072453173652	1.8291258571302287	-1
0.5898764698089501	-0.42116255510456607	2.3790496261451692	-1
1.5448921990896536	0.3069252207439568	0.20458961281636132	1
0.245115106826848	0.9958512280666852	-0.08717404399423623	-1
0.5350244366562329	-0.16847356576727587	-0.08280758529841714	-1
-2.8503558653837064	1.927436332075413	0.30673553252658964	1
1.8328445122627806	-0.4672410618703586	-0.165238650317336	1
1.4675510511535839	-0.9652766925389156	1.7418285822013033	-1
-1.2876200209820843	-1.0794650607731089	0.3064893539996452	1
0.8464952395720898	-2.370123866747004	0.34623906673785965	1
0.7477834204426121	2.0004050438325276	0.04938282722551355	1
0.13213679646157162	-0.15782820983670487	-1.766418468685881	-1
-1.9774729338431276	-1.6716082379339992	-1.4713713595680233	1
-0.10019488498867793	0.07434202409569272	-0.6111185112621476	1
-0.5786109892709763	0.17623179559247024	-2.011053395055103	-1
0.8756102128367925	0.0962028691326291	-1.8954245586537561	-1
-0.11537868847240147	-0.6100902559492095	-2.953062168673798	-1
-0.6387241116476092	0.00536201201371639	-0.7288972973696956	1
-0.6501236716545624	0.8801662724246084	1.936147913064123	-1
-0.8749407354869249	-0.6013261092483697	2.1461452560960117	-1
-2.222789842773144	1.186488609979302	0.6179373583883226	1
0.6569133754256975	1.6564028534338626	-0.16853007679792273	1
-0.6988804898016769	-0.7809322772538208	2.0975670731889324	-1
-0.5983815872743874	-1.478392605351124	1.9227078467536032	-1
-2.243719581068394	0.8164899506630579	-0.5192914333508508	1
-1.687607818880174	-0.8205689839454258	0.4367545187229839	1
0.40762615501764987	0.009579655236561499	-2.311851400677791	-1
1.3292092280035264	-1.4492108172678222	0.21932054699519543	1
0.5579840230627371	0.9835835205419386	-2.0705908649249576	-1
1.0850224351703348	-0.5055272975168459	1.7700526646219779	-1
0.5031338508224578	2.223326232110553	-0.20909806693852856	1
0.4242920822636954	-0.32274883181442304	-2.4364504354111207	-1
-0.27618621192405524	-0.07214491249069567	1.9802540850032118	-1
1.8026523429409096	-1.067257318429155	-0.3871726187145339	1
0.15822118979688782	0.6190655616242037	1.223849122600657	-1
-0.21842746832161739	-1.408577267281542	0.02313339640385235	1
0.4458524076261663	1.0127046887394249	-1.4915334940478422	-1
0.6509975244883929	0.76770309472654	2.8354452031495505	-1
0.08155250068676768	0.04194726473821034	2.520677599881158	-1
0.2873337529852856	-0.8592711922425025	-0.15398501104686774	-1
-0.37752495048198303	0.09571169322854468	0.6747457097237192	1
-0.8740387579617143	-0.12990490211977354	-0.0774134449911742	-1
-0.136291181726624	0.9532008433448669	-0.42252013988238724	-1
-0.07046558544640773	-0.6407157398249531	-2.8856520511723662	-1
1.0824045681126118	-0.4714950646006121	1.8368482774027475	-1
2.4006572674937976	0.048007234082397536	-1.0186891323494862	1
-1.0746949933452163	-0.776473566392167	-2.246606849038886	-1
-0.6045033055715869	0.7148561747306154	-1.782634911455996	-1
-0.41507208140389595	-0.6570519829100259	-1.6587645089821796	-1
0.04241155395278667	0.04655721116076609	0.5445479415881936	1
-1.1400116375328435	-1.0262030567712244	1.7453630948688261	-1
-1.4712210143055824	-1.6451073807204635	0.7762252166480311	1
2.2931315145402658	-0.19897473406434651	0.408980923099221	1
-0.021115501271043346	1.1262792985169408	-2.952987916371764	-1
0.23994400434964036	-0.06277865329700137	0.4170393006629177	1
-0.4089813257306494	0.36167066087026456	2.0888599495679916	-1
0.06907183649522279	-0.727687571816141	1.2300060026229567	-1
-0.5880949311611186	-0.4489934903622486	-2.7819617487539268	-1
0.4734883436674814	-0.5887606966919803	2.519093860812662	-1
-0.4500238032802288	-0.6878670495785537	-2.7508128163603085	-1
0.41444107278532405	-0.22524527286365076	-0.5893038261730522	1
1.0622796006044415	-1.2144750687749317	0.1876054908184984	1
-1.8170782937328387	-1.4531867945025172	0.0156604187202036	1
1.4489923587289932	-0.5735037583178156	2.6472170556721455	-1
-0.01139227997076053	-1.0984638036566154	2.087955899267753	-1
-0.6060861949965808	0.24905145015243804	1.471541648520942	-1
-0.2759847980075166	0.0512738454092632	2.4177334095085747	-1
1.7789628002566271	1.4306469034303142	0.6370442096692197	1
-0.47351139448549023	-0.6118067033487263	2.179839313933552	-1
0.9442144658034399	-0.3762767686728166	-2.106623599502926	-1
0.18083671167833715	-0.006061798122287736	-0.5416280498109809	1
-1.7198455291697465	-0.7375844599966181	-0.46658030997272126	1
0.05030155308503496	0.049267627935219105	1.7380144576216923	-1
-1.7158957645600799	2.9602371201067847	-0.45944097532083417	1
-1.3973477253537272	0.9125564163190769	1.9179365601471206	-1
0.2107203180043348	-0.9835953317249336	2.4338006018900558	-1
-3.036311202836744	0.22921295598019664	0.1280383982216182	1
0.5119506805800234	-0.2145312553301623	0.07755358638926102	-1
-0.6908121672632688	2.160007898501233	0.17294656045242363	1
-2.8148162010896334	-0.16786721191482457	-0.7386116678764059	1
-0.06319553320972655	2.0747726501875285	-0.8636381917879927	1
0.06603095790950655	-0.19405609073998017	1.964277446021136	-1
0.04946020587747546	-0.5883516050971446	1.8793401624215929	-1
-0.3716942635465481	-0.24451210323921366	0.15597091332760463	-1
2.4438397764462	1.5796847884071186	0.20303761768535736	1
-2.114568113380633	1.2155501606515178	-1.2590227094381496	1
0.11070119306039113	0.7582773254381898	-1.8028573730163924	-1
0.1222451754332621	-0.21838275103493882	1.5282607640542145	-1
-0.3257974846313993	-0.6505970575974716	1.428664808386708	-1
0.551716576725894	-0.30408300808326233	2.431154039839607	-1
0.0766079207728318	-0.16175812627332548	2.2959107979086957	-1
-0.15358574611106088	0.2832709591162843	-0.6772055840813009	1
1.696640331273537	-3.1121719526084597	0.574817080256515	1
-0.6514665186582165	-2.4917317558142873	-1.382410159027002	1
-2.1134510391836634	-1.35959262193139	0.2666608553490947	1
2.430734931944299	-0.4501866299557733	-0.167666569934405	1
0.02504089086534197	1.4002983910119764	3.7199375108109543	-1
2.7100783969374787	-1.027683017156131	-0.02038579530158522	1
2.113187332595989	-0.10507443651203	0.4674462232946701	1
0.044119741459027584	0.1923873639446433	1.9378322943030981	-1
-3.68497011487194	1.2591666003371782	1.0757815575809564	1
1.6337290035278749	0.4926717355000609	-3.365035789113678	-1
0.09427552035360713	-0.2810674823102705	-0.1380224206644519	-1
-2.66299939999373	0.21512094450741986	-0.5262942471341172	1
-1.2237238275612823	0.7865800022820263	1.943640432985378	-1
0.5838911473483691	0.9923309347783761	2.6390005849435085	-1
1.6286382229191596	0.33289141109887843	2.578258372353287	-1
-0.15899719727696002	-0.3716988217962629	2.7101250824306433	-1
-0.18541417313533146	0.6765650808272358	-1.3213953877414957	-1
0.18819380838630684	0.281579601936487	2.3807774512079436	-1
-1.5530419315278354	1.6869756682628596	0.20287910691937572	1
-0.29364178259035	-0.14863140768112354	0.05622047648360165	-1
0.918502682472041	-1.9942535976574747	2.02116657012446	-1
2.4995756915753855	-0.8153857834929339	-0.5944685554172934	1
2.428874273341052	0.6297071726643638	-0.026614420503096838	1
0.05575602823796292	0.627161296945224	1.5801061323912857	-1
0.050833563890826085	0.3406404527943847	2.064423527931756	-1
-0.012877086582102699	0.02887812631245967	-0.4822012807974247	1
-1.9317341975148896	0.5950135282735011	-0.6644095245387462	1
0.0787703582810402	0.006204430721455138	0.42336592254831135	1
1.6031597526508348	2.4958843178462473	0.5337429682079123	1
0.32103827022153136	-2.235113916125077	0.6387529308402846	1
3.273619068170495	-2.6367724370413086	-0.9289339617966736	1
-0.8917432603362938	0.5551101637882069	-1.6127321366660952	-1
-0.23793578111853259	1.9738857603356088	-0.06225451281813893	1
0.8113006091507066	1.2846352030543915	-2.562622010835227	-1
-1.2290773437390232	0.2605712601277305	2.515887801152771	-1
1.8421894522265756	-1.362962658902794	0.7626460425607631	1
-0.3064512228283461	0.27297424717937413	2.5809819927048876	-1
-1.6236685998072589	-3.134387210581164	-0.7050446375639989	1
-0.39046714677976385	0.17052855335619843	1.4315633322140358	-1
0.22726569688504897	0.1055359441610918	-2.5618017178277475	-1
0.3082008717242499	-0.5957557539086754	-2.021264085064173	-1
0.14523328566008195	0.09398402162315034	0.7223350986368302	1
-0.07311720254457092	-0.6715246161197452	-1.5736175714811678	-1
-0.9293455158744431	-2.3282654400063376	1.042838672283028	1
0.06732938579489853	-0.10845897976308383	-0.642832799010918	1
0.1413131668061461	-0.12254021972264871	-0.7093643659939489	1
1.865593362109717	-0.9247532821510241	0.5923446272967705	1
0.7017139323747954	-0.49455545753224195	-1.8011728902132393	-1
-0.8446964630340745	0.31329858072524475	-1.1992374969086275	-1
-2.230185207472168	-0.3807969548635928	0.453039478268005	1
2.0218084598189807	1.1843090097411273	-0.3754939224556494	1
1.743449991444841	0.31497747431922674	-0.013310928291849914	1
0.187505931654387	-0.9480673946771303	2.6779752847310196	-1
0.22831556602475955	-0.5591868694659347	2.0033329338901127	-1
-1.9495188171913687	0.6230302965514685	-0.9024258697417065	1
0.17160741682716743	-0.6849019565356413	-1.4272594925867872	-1
-0.037985991721222384	0.22111476463352192	-0.42104336893719757	1
0.43550617692051186	0.18880812589657728	-1.5610893537500927	-1
-1.9442382352678944	0.6692752055024515	-1.152380858026832	1
-0.5065809701725325	2.6624086617544274	0.9554792844280776	1
0.544735182162468	-3.3129647550870454	1.4768256489129612	1
-1.384682164948254	1.4488545422041688	0.11877963114140846	1
0.5151729982214248	-0.42952928691151837	-0.07268386213994046	-1
0.3730867527482869	-0.6358081338152126	-0.10914873393718205	-1
0.3977422729338511	-0.29628562768344757	-2.323263396157024	-1
-0.8357618530793044	2.179444685120033	-0.10096197266773506	1
1.8340907364526726	-1.0518441981476072	1.7719503650853021	-1
1.2083114145235534	-2.2731010939815595	0.4547035237181006	1
0.23485875302266046	-1.0949637511111374	-2.290201188243319	-1
0.6071006944091013	-0.6600939332552243	-1.8442573161491798	-1
0.04441969048430414	0.3898708209242584	-2.0604709117973328	-1
-1.4927953181317177	1.8705228823115996	-0.6970026288389856	1
0.7760322517168751	0.9124469984628907	2.1780420017105153	-1
-2.6712828696251654	0.1487553737119823	0.3287116674416762	1
0.31862682758649064	1.2631563996805344	2.0790572727199588	-1
-0.2321095105764256	-0.0008205935040631727	-0.8115222317860055	1
-0.9316654108632161	-1.296771507035365	-1.9650144162611605	-1
1.0132333097220652	0.27492037834102695	2.0129170646791095	-1
0.9021352251287387	0.7045198646449564	-3.0365644300822936	-1
0.9066370165180987	-2.244707548336356	0.5153399383699104	1
-0.1911733184758868	-0.06468735681814432	0.6277109179906929	1
-0.8484990353491564	3.3957482284364375	1.0367114583362056	1
2.754248075586718	0.32589761634723313	0.5268505857698047	1
0.7213552862392216	-0.1731711458411641	-0.23979006771411135	-1
-0.37396374351992956	0.1890085202834751	1.5145671725899377	-1
-0.08454637414583341	-0.28862661896515135	0.5610587981493959	1
-0.40682034393204936	-1.1650615912646918	-2.910062779764225	-1
0.5072075347828295	0.9105993764121654	-2.0055383860640332	-1
1.120276135894841	2.6776802450412873	-0.5846786191846545	1
0.927022530247128	-0.71008267335315	-2.326332012234816	-1
-0.12769967398076185	1.2720722849778747	-2.603239491076389	-1
-1.6273648583512939	0.4114035310466032	-0.09780764891646324	1
2.086864822484957	1.0294842888343503	0.0723014509242738	1
2.548758895053133	-3.783029035315845	0.36417656044586055	1
-0.4039489506206178	0.539658192921704	-2.964628994127848	-1
-2.288558750181339	-0.5167410554377148	-0.07431882032666606	1
-0.04919960367451656	-1.1395171612192347	1.937720551570504	-1
0.0897957061943781	-0.9383076868156875	-2.9670869767087824	-1
-0.9436380256384442	-0.19265672865838587	2.058244675924205	-1
-1.5024051813852957	-1.2765025962308683	1.1472896494501206	1
0.07930493130684109	0.1552913617044719	1.7148824904755084	-1
0.7011151485553713	0.7629077927929124	-1.7926897919900697	-1
1.7988573081344867	-1.5991333684027311	-0.4844488549043786	1
-1.474059046815838	-0.3065869773733898	-2.1886883005423647	-1
0.13224620723103886	0.32781318675159066	0.448560783783466	1
1.2189975920093383	1.9772990722163304	-0.8752897310841281	1
-0.37184726419405567	-0.2354496801506704	-2.3962511225848675	-1
-0.1733130923257692	0.09603350171012343	-0.6774806624906685	1
2.5952423757335534	-0.7241847942975379	0.336514100051648	1
0.8107871793601739	-0.5012194959688	-1.7081262875815335	-1
0.10128877078919694	0.8035356088020951	2.3335993005213456	-1
1.2710813376708965	-0.518496335443024	-2.9603483321424617	-1
0.8427591949637887	1.7891465107337678	-0.36950001139680805	1
0.7219491260304794	1.7498779664262096	-0.0915094542881626	1
-0.5231990412161436	-0.4912844721326704	2.3593911713345443	-1
-0.25029174301691154	-0.18813608411246086	0.5466235709130368	1
-0.6236996810796042	-0.7806781982804388	1.6406942012995716	-1
1.0509790189762558	1.2331574859493735	1.632346454729508	-1
0.36400691582945444	0.7463316876293528	1.5744236995752896	-1
-0.768962276692974	-0.5814511055505598	0.09078637654648543	-1
-0.002907265098545151	2.205061108341849	-0.8371796420979263	1
1.243243628511706	-0.355055925763555	1.2638029420806043	-1
1.8830447236500458	-0.9518761116222081	0.6690297371584345	1
-0.292780502859662	0.17080849020890992	1.4865666390445966	-1
-0.642160974730828	-0.765613211386426	2.379073617401754	-1
1.3462489975520797	1.4912487059957076	-0.7990760706080231	1
-0.45341229172728464	0.34300303354050854	-2.3262840293602647	-1
-0.003461229061936621	-0.6344810654524575	2.086269065497942	-1
-1.2136313062624648	0.6623497760506282	-1.1907340883752364	-1
-0.2850563330397461	-0.42982864574267343	2.192113182207908	-1
0.8483167080559242	-0.7983289264934794	2.2987601642184456	-1
-2.3900973751983123	0.4113041482727409	-0.8028381251968089	1
0.5284513738885279	0.09094291938715623	-1.7804614614169099	-1
-0.7062964918100172	1.660286365434204	2.607307897217938	-1
0.22366558265004036	-0.07236379019971576	1.6235934670438625	-1
1.6241130388058682	-0.30662673745240426	-0.02517223127450191	1
-1.305026955633436	-1.3774611000312342	-0.3446611709304855	1
-0.023473788113400916	-0.06882197470025274	-1.9227066683784202	-1
-0.39608296956727457	-0.4110232860271059	1.892978072520623	-1
0.07249406034631845	-1.3681788939679926	-1.7866680425121328	-1
0.6043000523078814	0.9285337355194081	-1.598690620543855	-1
-1.2968964162628371	1.182133169431403	0.16346318003876487	1
-0.6525347267376396	0.1571427362780439	0.03933715765258691	-1
0.08441545826412392	0.7244518336649646	0.07584625314914308	-1
-0.5318135151988602	0.012849654850718192	-1.7553253155519148	-1
-0.15469256752484525	-0.5841016214013465	-1.6994721097831875	-1
-1.1590819218640733	0.289393460779398	2.0088961997174364	-1
-0.6269993892242339	-2.052352476352676	-0.18122185914728453	1
-0.8067689766921924	-0.627997235538365	-3.7109253100022808	-1
0.9996935729770634	1.00269743157916	-0.4105557425275388	1
0.7744859658411558	0.18754951754669436	-1.9919551075904367	-1
-1.4649593936804237	-0.9859559557366453	0.4219599944328738	1
1.5319589534903262	0.025875620732808653	0.2667668973731119	1
1.0508596755674122	0.5512067775257877	-2.9659502350150198	-1
-1.2511570521799935	1.0202283322234118	0.10331491836993623	1
0.41224166667630135	-0.6328866190510744	-1.696209695210212	-1
-0.5184880734989528	0.4124169414230503	-1.4759161161528642	-1
-0.02143101538834075	0.8641956519429496	1.4667317404099147	-1
-1.4617694724214234	-1.4637116025119223	0.7353233546984951	1
0.2732571682632423	-0.08791892175818666	-0.7381036228106836	1
-0.9919560568393244	0.5461836314553222	-1.8015746254920335	-1
-0.4746814017829083	-2.1318802761549853	0.2147335294992001	1
2.099515328483008	0.707035188462215	-0.9412686446543965	1
0.23378175094865206	0.3415812896926431	1.751159256395252	-1
0.44023560665648553	-1.948839716885377	-0.2918036698407646	1
-0.06507916195616235	0.11301228968845096	2.4417632822905677	-1
0.629214535790227	-0.4834906452895312	0.3002294313252635	-1
-1.891034065477843	1.2907676208246701	0.3781477964293367	1
1.4804145593503786	0.6374039561935121	0.4648739596737908	1
0.045590197635014595	0.32967311853150094	0.6792976606827423	1
2.1375152924599297	-1.2239077145491895	0.0770875160917212	1
1.1636651574283619	-1.684503444305233	0.5292696605709065	1
0.4368789480790996	-0.1530598594470785	-0.7230860844104954	1
1.758533781331031	0.020842736100681006	-0.06320686832975894	1
-1.3068399889496476	-0.19876010557181556	3.626513594158319	-1
0.07435106124807993	-0.1904537762324886	1.9323393488662437	-1
-0.7360786152549896	0.10475280087062151	1.7111274948568203	-1
-2.9392148737902817	-0.050163110444685105	0.2433287023400561	1
0.1954293422487152	0.24806018539713268	-0.5800290107810627	1
