-0.5261089533535406	0.05568617042878265	-0.6046355949358769	-1
2.438643100380967	-0.8658570660896152	-0.2593850436285844	-1
-1.3728433891242275	-0.2290394538689364	-0.8920640296332071	-1
0.2730382978058494	0.020566112883860198	0.30202129969209535	1
-1.4193734200107853	0.43688165349913066	-1.25987257489776	-1
1.2022548702594171	1.5182792005108103	0.11875707151537876	-1
-0.8310225950864766	-1.6585101707109904	0.22990525245447235	1
-1.0871496125734028	2.2590504950167545	0.1314234247260927	1
0.6426214897459939	-1.1181052910522118	-0.5737981515861165	-1
-0.9129633958480681	-1.1694262245112121	0.3374484131283688	1
2.9349671175632173	2.2558285493068424	-0.04118303857673304	-1
1.150599618407454	-0.5597483795234288	1.6952838567479542	1
-0.7612034871731665	0.6370335070400601	-1.41587251209776	-1
0.7114288079439768	-0.7924662615638874	1.2188021626858987	1
0.6334442726362433	1.078264582708386	0.25939597060289626	-1
1.2696631312205	0.15295604329392098	2.944255460228752	1
-0.8158043490425744	0.02263984227910349	-1.5601831462419522	-1
1.4036939623605185	0.7018317769486295	1.6445289121122943	1
-0.519878905286314	0.5908185256678422	-1.5649099800536372	-1
1.7407411364342638	-1.6344511035372222	2.0697009495281047	1
-0.9692715396404852	1.3867947477060338	-0.07690865007062914	1
1.6593570834433469	-0.6982217448550658	1.3305128998217721	1
0.2682151537069587	1.605674181171698	0.15367800429414774	-1
-1.3276379636550797	-0.7672017255314223	-1.535407966031233	-1
-1.3100174539904221	0.07359965905863511	0.8153157951189981	-1
0.5716526303757113	-0.7046588725909986	0.015181524494564662	-1
-1.6088236466987516	-0.040068715264512327	-0.935115895985791	-1
-1.39342798270585	0.006123957680158379	-2.0500289767303235	-1
-1.004636896656791	1.5040582774823443	0.2845244270016797	1
0.7015737060410079	0.021845218247486458	1.7687171973280837	1
-0.7479647439746553	-0.24100978735183462	0.5908402615761468	-1
0.8625251971401545	0.022453047215834715	-1.245515966373254	1
-1.444372927922966	2.944277644876947	0.5990082733231404	1
-0.8738382676935423	-1.869781762340908	-0.5225015177364065	1
0.38036324576215796	-0.1016868827069716	1.1354955857293312	1
0.47254733490639866	0.9663233499481093	-0.105597073782561	-1
-1.0485481272041148	0.4375335523525637	0.009960472287177682	1
-0.5727042599507192	-0.8433977172436183	-0.32800776797779124	1
0.18525616872951498	0.08398625841082548	-0.4565772686700494	1
-1.371927471264094	-1.8867580662891499	-0.2958430321639729	1
-0.4876863050021094	0.6209314604744088	0.2333837824594973	1
-1.1903917594835949	0.03833158148022021	-0.9189124735809359	-1
-1.478044357525025	1.133628718395766	0.0664104624605009	1
-0.7201622055927978	0.8708284713350324	-2.5654247555191523	-1
-0.6064525679946978	1.5129722708022415	0.0001750430990490226	1
0.5045565786029738	0.7758795198865198	0.13622409800955973	-1
-0.8933200918695811	-0.3179222303951355	-0.962825427821914	-1
-1.8537304815618794	1.3669076996485487	0.1555209946483005	1
-0.30983758925766064	0.4408543324603514	1.1690333995277353	-1
0.3755972620814462	-1.1200035569338775	-0.12230516289712978	-1
-1.1548252401078805	-0.2590221708331661	-1.0845992740210848	-1
-1.5539472918668904	0.31346263838854754	-1.3347023776777422	-1
-0.6715558334732485	-0.05874573236573524	0.872422230605538	-1
0.8410644079324578	-0.2792150105877783	1.7518849309521618	1
1.0382749458383518	1.4498597893360488	-0.3501796179188542	-1
0.9235123976111803	-0.13533778011690642	-1.4734320113849653	1
-0.3461108510695055	-0.8270876742258118	-0.12603714418864057	1
-1.0845056546058565	0.13866591852025992	-1.2797211820341832	-1
-1.1686637499271388	0.7570011226246662	-0.6789870165842756	1
-1.0442923654589886	0.23651452518715763	-1.979481307649463	-1
-0.4741198254716695	0.21026732021355954	-0.8398982061700974	-1
-0.4489187419274416	-1.1385397453137711	0.03741499133626877	1
-1.1598493185073055	-0.08046200421450762	-0.6061499894227765	-1
0.4616644745950604	0.17676807939852424	-1.198647209324838	1
-1.2739478003935436	-0.0015464460699966603	-1.716489966282544	-1
-0.336716147190396	-0.8338836907241117	1.753192816598222	-1
0.8447199106531866	-0.6167624017429778	-0.006959669809400524	-1
-2.655514264089552	-0.33453077161182304	-1.1284762515872977	-1
-1.2136115493718271	-1.0692978130127935	-2.0353959320203416	-1
-0.7737689118063553	-1.0693734659643293	0.12079556818487854	1
-0.6344671774231768	-1.4452704411085493	0.32163301632276814	1
0.9028364262165982	1.8486237398853156	0.7841086761669578	-1
-1.3374033222855335	-0.049867373923592195	1.2355823332691593	-1
-0.5800633838441914	0.0884597920189559	-0.9876743484185235	-1
0.8465861483769701	-1.0456715516539903	-0.08499383594307097	-1
-0.5639776257546159	1.5524528031825404	0.05532523334669945	1
0.4482310603256934	-1.1728597129636622	-0.1318134979555535	-1
0.8820116000085352	0.06531330078260678	1.0044817124030287	1
0.5142296668886125	-1.3925264918295823	-0.1441057140092416	-1
-1.578563235095624	-1.0014068289182003	-0.0005834267370920786	1
-0.6935114139092661	0.3591912869070038	0.9050085420779784	-1
-0.7896458233860759	1.9220709442770745	0.29034890629243554	1
1.1624234162653915	0.8684518371064174	2.504411924425609	1
2.7057753937264355	-0.6418780296455027	1.2380839549259657	1
1.2234000405888117	0.16704822942006292	-1.7966913527967485	1
0.8843258617304912	0.27210528391859395	1.873528979599178	1
-0.5826319003639875	0.3877144285124657	-1.3909695572625023	-1
1.7370517815365565	1.119692013063234	1.91923581857737	1
1.1634257625561186	-1.24965080715363	0.24487259866372182	-1
0.9919311041776763	-2.1591994860508588	0.938206522769778	-1
-0.5965356526324345	0.3693415488558967	-1.3772555879028425	-1
0.7676050706896348	-1.0358767384465624	0.6129086342305392	-1
-0.5077303091404642	-0.6887156415529345	-1.7397689614701382	-1
-0.9664453801837075	2.1635051160466054	-0.03645086878271319	1
1.14033825354107	0.836965797601992	-0.1794277806076986	-1
-0.5518381884384878	0.15002703849862506	-0.8608513292312081	-1
0.7808135848096179	-0.21361032651756084	0.9572568112689658	1
1.3304284395520511	-1.4911025604672148	0.1845914425672431	-1
-1.8603231945522412	-0.13374307676324065	-1.7939282094811917	-1
0.6011547900558768	0.2931073871217355	-1.8186343925535255	1
-1.0000428657338838	-1.818142829392269	-0.0003952136403661511	1
-1.0528678722093892	-1.282368115226654	0.48575819541150866	1
-1.9030128412621807	1.2292653572783536	1.910975722975902	-1
0.8823620388378723	2.6413338933441812	0.109503878320497	-1
0.6682159501747365	0.2263285786578659	1.1919562546426217	1
0.6178877799203217	1.4146025080095885	0.2131747378044529	-1
-0.5987072244893661	1.5858897258916647	0.1481594842898976	1
0.208497720450421	-0.42905010556609846	1.5587384299270524	1
-0.9661499706871313	0.1481244308409513	-0.6257121560295957	-1
-0.9755350817270569	0.42066671713664877	-2.187086839334923	-1
-0.6091992426317581	0.9430032217650688	0.24434910136504479	1
0.4342500796871299	0.5284433311819752	1.0108342212105799	1
1.8222178048116229	-1.3083719537169198	0.4792907292525918	-1
-1.1166418749118963	-0.9440801956769195	-0.19979891876160602	1
-1.1305052155089756	0.05378434955188928	1.3441051377764217	-1
0.47086160233535773	-1.0742076317517817	0.5312517396234645	-1
-0.4092074733577933	-0.9301589319040979	0.06431363657139161	1
-1.6779978000101528	0.35900378664101695	-1.75058321531465	-1
1.3384481141134792	-0.31792382442754913	-1.3810176991447554	1
0.6277176899328175	0.468570735687432	-0.02058738867653353	-1
-1.1661963829301074	0.24681582742860658	-0.7428345383215826	-1
0.2969155866622171	-1.3358192593616878	0.1546800360947196	-1
-1.1772216244571676	0.005826560983191845	-1.482130277731539	-1
-1.2591070271620861	-1.297475115841813	-0.7152842181769148	1
-2.094851049058558	1.2078720281941562	0.9526942217292703	1
1.1003446119082634	0.6296062527835926	-0.29044430446650904	-1
0.9744716764614536	-0.1405152399616094	1.557293937822167	1
-1.0439975838601334	-0.1563705415877059	-1.583427874974742	-1
1.7002343394266461	-0.7004133576113172	1.2306009233148276	1
-0.30300452103868625	0.04177736095630905	1.8828648778262687	-1
1.0770449794203834	0.447699796119315	1.805213071838923	1
-1.2017886278291394	0.031548895829252604	-1.829701586318912	-1
-0.9634915939010047	-0.5939508428643493	-1.0297574510449914	-1
-0.6196502725995452	2.1083343123679366	-0.05815601216920113	1
0.5673563559512239	0.8874139830831063	0.604049614927457	-1
-1.2172287408519757	1.2863735318682337	0.6321486587895796	1
-1.126761605521575	1.36846748923654	0.6908125747282923	1
-0.841426198423294	0.3451495216051033	-0.8356598798367714	-1
-0.9801873223329496	1.3864401595013431	0.5027021343305965	1
-0.9169027262736041	0.8901312841859641	0.21390386939292025	1
1.3169740926049367	0.13503223379818205	1.6876510795096409	1
0.3878653634096052	-0.01717627940815735	-0.38861133867395076	1
0.6229543390626191	1.6584605812887165	0.33881608423973353	-1
0.49190792176355463	0.39901106030930306	-1.08862926217513	1
-2.3509389908879825	1.8516052351978756	-0.011314860610997733	1
-0.8149100119456003	-0.8092638347339576	-0.020258008078729187	1
0.7939780099064857	0.02709130555293758	-1.5070455923018187	1
-0.9099257808562117	0.9571185969491656	0.14803339860827258	1
1.5109644435963367	-0.6875444272298717	-1.0261276762927938	1
-1.0993567649221605	-1.1305586412449897	-0.21617351720133376	1
1.3610708233911806	-1.2548905550008227	-0.46276780567112585	-1
-1.1844134475197348	-0.8172939712264325	0.07611680928459644	1
-0.4207486351468694	0.21679258299719129	-1.1435694556621996	-1
0.5676727765580768	-0.25824932039932263	-0.6920120144776253	1
-1.8363053986463407	-1.0495379154240092	0.13612626923146903	1
1.444419470260235	2.4162739522987735	0.29914240918905427	-1
-0.5487055022017662	0.06516585294724746	-0.7311591090255692	-1
0.9671813675980341	1.1077027226499268	1.7755839261647766	1
1.1000234617803364	0.25260767188554284	-0.9161796826744457	1
-0.21810586239756963	-1.4536423074376514	0.027572351238178774	1
-1.527965269743049	1.367603108603841	-0.413066556300876	1
-0.4679942378084099	0.4563170349671737	2.0320488749408643	-1
0.8743619746050131	-1.4395662867511458	-0.043904661942299666	-1
-0.524904103674167	0.7294400579556655	-0.21454640847741502	1
-1.007287952823284	-1.3243244599435187	-0.7040012619539026	1
2.2515805215910896	-1.0598103643948174	2.078377671991193	1
-0.34535328315331665	0.8536373577754262	0.13500884534797908	1
-0.8517865562659575	-0.8339333371567705	1.9852304549001631	-1
-1.4216093007382944	0.1969172699533126	-0.7988937610204826	-1
-0.9924209108718558	-0.03489377149801209	-0.6278948129348727	-1
-0.950511284862944	-0.029140547330707048	-1.5472665001667507	-1
1.0703797537479696	-1.4057145566663687	0.5298017638657874	-1
0.42176038880535327	-0.25341346113388546	0.6418625927138176	1
1.1299537205992773	-0.019986165893417153	-1.6201972320467037	1
1.5719442805262933	1.7784350813403027	0.6271097897736383	-1
-0.650360533520886	1.3062136553240737	0.032921236801481735	1
-0.5634747177080925	-1.7886079632512963	-0.07617042681429399	1
1.6850159878696396	2.0997904505962173	-0.6234724396509445	-1
1.0157919310647308	-1.004715110356683	-1.5428344491039392	1
-1.2021749533185808	-0.3854074594335942	1.8520671978934684	-1
-1.1424146880660484	2.250015051677894	0.5152465862483174	1
-1.0458323382641175	1.9539923671573771	-0.5238620827553762	1
0.6219873567092724	0.21203546220900693	1.3393237812683898	1
0.6471849448723284	-1.0291244344254311	-0.19505458009427756	-1
0.4025603188248874	1.4665371062119086	-1.0891932692708346	-1
-0.9853919176353406	1.511077051679056	-0.03593309042589785	1
-1.1717302143433297	1.7433026536578191	-0.2734444267255909	1
0.8028605467683223	-0.44963432175156853	1.0649726210664932	1
-0.31682133903238785	-0.8625319686568113	0.2584962999490885	1
-0.8623700509755828	0.8937027557382665	0.4262473575276669	1
-0.716718723717348	0.6284886539681983	-0.3365928374870243	1
-0.9175418037960011	-0.039178139892722	0.7997176889652727	-1
1.3849227160188051	1.362886763985885	-0.1494374208259684	-1
-1.2269522142597848	-0.2371900343967547	-1.0731471473794645	-1
1.1441780653009432	0.03648722672889126	-1.05535419498897	1
1.1295184790864987	-0.24702614054320474	1.565611177760906	1
0.50524393119978	-0.439320979452625	-1.4185714609637587	1
0.9423180350369549	-1.0259349516967724	0.31450336336932033	-1
-1.4942444171777012	-0.024270005128960232	-0.8841899782431775	-1
1.8591932863885714	-0.021062930171043968	2.074416886142225	1
-0.888869745196241	1.0695091373744425	-0.02730595009465734	1
0.5162522167349688	0.12953708081698456	-1.2924610850282579	1
0.6316097169556071	-0.31047383456164174	-0.9414566061987103	1
-1.053469384087564	0.11610626649249554	1.199945595327738	-1
-0.7715817056608137	-0.37286617123300364	-0.7950320551156933	-1
0.5176166519175323	0.9624319888350339	-0.20011582431872804	-1
0.9968504150515403	-0.847053882187296	0.049956653812820384	-1
-2.0391614487422998	-1.8885080815172508	-1.2532174757495342	1
1.5717749296255663	-0.1306643217307731	-0.7275533492148631	1
2.019277346073133	1.811140241159064	-0.5140664997897945	-1
-0.7980361954911064	1.2679465313414697	0.20611852102349082	1
-0.356353257129993	0.32478630260283087	0.7057495685218296	-1
1.8320560534032921	-0.1523412875035628	-2.398396186818164	1
1.0630648598932744	-1.3026580062760107	0.31461348824776353	-1
0.8400972523837323	1.634509436257776	-0.6118013257047297	-1
1.4510202927592326	0.2884896537641864	-2.07754405193725	1
-0.8224212634448123	-0.8136839538888027	-0.3550944314935364	1
-1.2245403966318744	-2.0758619869448736	-0.19516265352971934	1
-1.5080663533977463	0.6003342348738703	-0.059876437003311	1
0.22473038277813978	-1.0644043100131282	0.0030201083904305825	-1
0.6047609490667215	0.12555039076891666	1.2073069631133697	1
1.1004670945899315	0.29130620582069067	-2.203173653381508	1
0.4722460962606359	0.44576721960890026	0.9458794289387549	1
-0.5409289800823832	-0.430805760766523	0.8980881579075572	-1
1.5324230679231814	0.7914803752172052	-2.345042828212736	1
-0.6330477703135924	1.4480915033014232	0.11667530582616166	1
-1.1778511964126084	0.5532236133326747	-1.3017832549852786	-1
-1.3397571879921075	-0.20019974971862828	-1.3207137343257203	-1
-0.6472844289804998	0.5814843107233333	1.3939913966779194	-1
-0.7383915872600639	1.2731356388087212	0.04425741798784423	1
-0.7697890311812611	0.24876611537814475	-2.421047575034887	-1
1.3540534190104945	0.827530159471939	-1.1651246233539974	1
0.42197729468376083	-0.7058687063268828	-2.1076523056395176	1
0.825720401406964	2.124961409881984	-0.10904562843978616	-1
-0.8077062660872644	0.7696630373309961	-1.8990315139769753	-1
0.49313508950356333	1.6358797310486837	0.9370314764685155	-1
-1.3835134038926813	-0.14479875335754727	-1.0808644736653663	-1
1.572202721873004	-1.3112769287093198	0.1010903968471862	-1
0.37000867533404397	-0.6361606294466535	-1.1467930244316389	1
0.8999307742820757	-0.10841657692847005	-1.8923466080128408	1
1.2644890500561978	-0.9311435665654808	0.7623945854075117	-1
-1.573157466110171	-0.47644907606224374	0.957000058839504	-1
0.8248042781221147	-0.1882168024662466	1.269737939786288	1
-0.6612689395106985	-0.9000951017009791	-0.6460377798439827	1
-1.1724330224903714	-0.10861665231294888	1.5610883719286792	-1
-1.6353799094797639	0.2887829612408426	1.678793586424622	-1
0.48736367103700406	-0.07912411951009829	1.0754820720204588	1
-1.0470649924605924	0.32522434597109195	-1.5985585266414948	-1
-0.8952408292548564	-0.2861694281182708	1.1273624815213221	-1
0.20835040178766812	0.12057319431705144	-0.6743480070551332	1
-2.378391347317018	0.23616886070903922	1.8081186862407628	-1
0.7789408756013735	1.5993152290909347	0.4708496613037696	-1
-0.44772350903312097	0.7684201062754239	1.5865289314708821	-1
0.8056815323933109	-0.922964734852236	0.22851423689683084	-1
0.376588292479162	-0.4095190372517683	0.7599427946862685	1
-1.663553298915673	-1.3819173003415592	0.27989209877421145	1
1.2371506114864217	-1.015909912296174	-0.07610616135369054	-1
-0.7737052134624484	-0.8656062951346684	0.2845856629708036	1
-1.4362262576462186	-1.785038438864547	-0.935263085727933	1
1.1835858585764913	0.1611976218006392	0.42564582705783016	1
0.3496944564653283	-0.6483503548794236	-1.3862437557010994	1
1.6450813073028532	0.6241076147996554	2.2708698528596196	1
1.3347630313330625	-0.40642150211813216	-1.4964263032549026	1
-0.7128901516793427	-0.7253990297660291	-1.3240168308700104	-1
0.6784851641660088	-0.13148124236663747	-1.2412816358443381	1
0.8231560269216793	-2.679380091222107	-0.8377332665114606	-1
-0.7742600246244489	-1.5226433925896437	0.5155947232418473	1
-1.0267370732809267	0.8450278321448007	0.6724220886923109	1
-0.814071904528491	-0.6894668002238856	2.0319391525609807	-1
-1.558160623992769	0.24376365332363825	1.81823298358084	-1
1.2749963705900373	-0.18352350182422525	0.9347686665695476	1
-1.120882837209127	-0.6257230399861151	-2.0652054194129814	-1
-1.6131286887327332	1.686830055452579	-0.016152236780015632	1
0.555451148543192	-0.46148322888333954	1.845618493224518	1
1.2978197455052127	-0.0486872433078394	-1.159461341159816	1
-1.1999430232887471	-1.5492423331020182	0.377057956467166	1
0.812751770690503	0.9994904289017894	-1.6213447677743809	1
-1.0210920689935927	1.2023725452545717	0.44587963650982715	1
-1.0730071889524158	0.7511716076407238	1.8548665545651823	-1
1.3131975890141239	-2.0197094939288847	-0.10558225802748522	-1
-0.8325806889847587	0.8911910048985288	0.2730862140358714	1
-2.0097875614819514	-1.6369342281154358	0.9076211720974334	1
-0.5030550516833165	-1.057193708395224	-0.5670491527776164	1
-0.9918643955227294	-1.2089003392007203	0.25391788485070776	1
0.7870546988068201	1.1003864277762796	0.033507334023582656	-1
1.1436995907492655	1.0624498533687359	2.154885656331462	1
0.9240427362519124	-1.9098426092273653	0.8126685870332206	-1
-1.1286398215753506	0.6959752980051263	-0.8709973235191969	-1
0.9057849733363702	-2.3976299746307403	0.3497997714810793	-1
0.8196345137236087	-0.043900945563919526	-0.7882734962298312	1
1.1763383676538062	1.4490689530333647	-0.09340598649729616	-1
-0.7094608572916823	-0.08648578713788123	1.1933567637769429	-1
-0.9608896075168453	-0.2666230600516447	-0.9821078693442408	-1
0.9915637335211838	0.5514169887633841	0.9714018952731067	1
1.4218560161763607	-0.4902310694594236	1.3894503635432032	1
-0.6068073893736033	-0.5055670147360228	0.7329915001102741	-1
-0.5244911503084282	0.5421546791062933	-0.07541787150538254	1
1.74715488088669	2.4063884008842495	-1.0905972430312814	-1
-1.0668433171564022	0.11062807098664916	1.13020233370197	-1
1.2309554909483524	0.6026740007686424	1.3588615837098255	1
1.1316117546901872	0.12403471725310607	-1.4089594392855016	1
1.579270917160708	-0.037327693413840526	2.199872828627754	1
-0.671754457366904	-0.07587006008244646	1.033335735295635	-1
-1.1385505199496655	-1.0024683679046371	0.05835275081581231	1
0.9022225824401151	0.7237972353619545	-0.16333496839878273	-1
0.9361871972433518	-0.08639709188791413	-0.7621576339587646	1
1.2862492528544263	0.6427858467146973	-1.0953965082728583	1
0.9583421001646761	0.8772374238695895	-0.04695269604700965	-1
-0.8012716916789693	-0.1761850327774572	0.7787973248067142	-1
-0.41993673481571636	-0.06103632198517588	-1.0461911181792982	-1
1.043517205782092	-0.08563211891828333	1.8042688453405498	1
-0.5982661927632608	0.9651018864221732	-0.45025983122372976	1
0.32443679979776674	0.9624534202043571	-0.07478830753599226	-1
-0.9749250527531581	-1.1230785279403241	1.5417756294937437	-1
-0.7103674135897329	-1.1588014522032692	-0.1130968799496577	1
-0.3290141958412982	-0.15253825976870664	-1.1010244132941787	-1
-0.3417599763410004	1.503039424020482	-0.3127547024444814	1
0.6546869335499168	0.10714757691458343	1.5715996221523472	1
1.5060501825522523	-2.2280233876879456	0.09361692228152009	-1
0.554923133889195	1.471394709474093	-0.045139425213010925	-1
1.2550979410245742	-0.5188132592846765	-1.6244997215141124	1
0.6681194699382196	-1.323316794102847	-0.4798237758492433	-1
0.5598602818098207	0.047481756595291955	-0.4354571575790653	1
-0.5892177471313514	-0.7647113259902698	-0.03265979696247012	1
-0.4058714086767921	0.17027112416312962	-1.026383487094981	-1
0.5525240815247322	0.9261689284461418	-1.1339807614106066	1
-0.780473769463467	0.425367530812274	0.9631141622782695	-1
-1.036489031566861	0.03688353006419935	1.4781897776759427	-1
0.9389264368415798	1.37024396984115	0.24638945861396488	-1
1.064249276134795	0.5704171666395734	-1.2496040586673247	1
0.38540926946880555	0.643198047996261	2.1670728461577773	1
-0.30759839197837463	-0.5146437420285678	0.09976664986895133	1
1.1940016594809664	-1.8471050924033356	-0.4294337027994101	-1
0.6237847830148692	-1.3025634125291132	-0.4533504956086364	-1
0.9982723812273971	-0.9075814227621488	1.212295149851318	1
0.35483249218269175	-0.811240249740995	0.11697241258473384	-1
2.075979418983423	-1.7754942761939825	0.27731838894372457	-1
1.7032051992285913	0.527686236221569	-1.5262216261400716	1
2.4087247667110256	0.05393214751502006	-1.5318746998099277	1
-0.5558468827204254	-1.26458724104298	0.04647049391277698	1
1.5090490323277703	2.166003495449274	-0.3650206695608082	-1
0.636031923388225	0.84168383518982	0.0992970121045828	-1
0.6850073336427176	0.9068668349230701	-0.40327081812185234	-1
-1.7602529503260032	-0.024524054726798923	0.7402332670485665	-1
-0.573191306639306	0.24997036402520628	0.8686620270751159	-1
1.4055779802977577	-0.7595529186355868	1.562130239312486	1
-1.2789576596165881	-0.09612301549291369	-1.5134759339367287	-1
0.7290316683158858	1.3530962599365486	0.16599188555775854	-1
0.27104364335875275	0.5807090190350669	-2.522547978693591	1
-0.7859011823953554	1.497390750800228	0.8929151967967028	1
0.8879176141605927	1.6975407246147558	0.19583192880150294	-1
0.975717427661368	0.45978049107691454	-1.3930566149006434	1
-2.218882986305076	-0.384416035729457	-1.548446827340993	-1
-1.4629581811905614	0.36678726318451627	1.40543014243109	-1
-1.0491684001058628	1.2882097796164875	0.8019745494873549	1
1.2931408893001892	-0.18132538443164356	0.742165497205315	1
-1.4150070016635399	-0.0013964746702160226	0.690255360853665	-1
-0.5071017200036351	-0.03241372827803201	0.8873363242832991	-1
0.5497216306762444	0.3377033245125607	-1.081218346713183	1
0.7967064468944058	-1.6734712663182436	0.7014149856145526	-1
1.6358218559555309	2.4477307811164275	-0.4207451278527299	-1
-0.7198647895047938	-1.2657760622097152	0.161429783801414	1
0.8722853999021402	1.301096800354892	0.40420032635273034	-1
1.4984193332726732	-1.949409810694174	0.09349864123504081	-1
1.4299894603417465	1.4436622891883755	0.42691097826023433	-1
1.7930875214636526	-0.6063465911309167	1.3314547264236873	1
1.2214086649463827	-1.9210800308553613	0.4155594449103947	-1
1.4174153038386308	1.328527780412904	0.06813413241286895	-1
-0.5748926434680305	-0.17483544886174857	0.8744695003480891	-1
-1.0236679517749483	0.8904951263958776	0.2913610758622657	1
-0.6219035754916817	0.19708740518750645	-1.6409363010093607	-1
0.7019329925527864	0.05115851803978014	-1.3803806526614797	1
-0.9692600457435865	-0.9818301192047344	-0.09192291527086187	1
1.3701936712294582	1.8645949973390703	-0.48851656675580496	-1
-1.9136324862736669	-0.35470007187593655	1.7682107856861748	-1
0.4158913342525212	-0.027245179291287537	-0.8652094771095419	1
0.5431027215263814	-0.0276894600277242	1.454527880422005	1
-1.4737763335921317	1.5517686520795653	0.10322619691664355	1
-0.8830480216637121	-0.4488908870918638	1.0410607618266612	-1
-1.2703315220015248	-0.3683299400445175	-1.3575106868609663	-1
0.5815234362329277	-0.2496217751231686	-0.7487741606915816	1
-0.8217396097226675	0.11442972672396495	0.6054697993557132	-1
-1.3020022116013583	-2.152507535023011	-0.4585644931148764	1
0.47335058968039817	1.305806196937044	0.5616341974159601	-1
0.5868888624171932	2.305986870544996	0.40667586245575316	-1
0.04235130926766859	1.9538368379574766	0.5674899988187799	-1
-0.9431886294658235	0.05056004248546467	1.00573529419848	-1
-0.46893294836367416	-1.3425831458731698	0.03188261989853708	1
-0.8386275649782976	-1.4794738027574388	-0.07870449558321585	1
-0.6746199672167829	1.4585742450023869	0.5240002442730913	1
1.0441351769025367	-0.5867957586848694	-2.7186367763028274	1
1.040836298765257	-1.4561328670817024	0.6676867220693388	-1
0.360937889468807	-0.8705240824826714	-0.7028150030162452	-1
-0.8258103391761824	-1.2147730277868038	-0.333304050357178	1
0.4649202434290007	-1.3083353136520532	-0.5874938905618928	-1
0.47086791490682656	-0.24232034123420326	-1.894418254723008	1
0.9855990571945553	-1.7341177994866144	-0.4081470411391241	-1
0.8057434177752807	-0.1842274520519428	-1.560163998370223	1
-1.7842325631716454	1.2527510091093053	-0.34180346271651524	1
-1.6483162077543552	-0.20835417708944626	-2.9663091735781246	-1
-0.8167783603138599	-1.44496811163278	0.31437823897199735	1
-0.936668381914688	1.0379253036655587	0.5229811108185618	1
-0.5393779557099173	0.4269329041515939	0.6287373941088172	-1
-1.0144789169004094	-1.1209901707783474	0.36827714283060464	1
0.5012632905647922	0.8911401615712947	0.7091646359083974	-1
-0.3080448685395255	1.586589956881044	0.3814753739304433	1
-1.0769173880376073	0.25017347701404286	1.2319755988877374	-1
-1.6339440910297343	0.16248799611561354	1.880497067912099	-1
-1.5564352207081802	-0.6399480101924986	1.6566807806962882	-1
-0.744630994725052	1.7527727491535234	0.6482834610175114	1
0.8865340752268351	-1.130509076793001	-0.5196732876494847	-1
1.0706334058614897	0.06593270508260217	-0.9586844742760073	1
0.8421242399733156	0.21950692823360882	-1.1007380783999945	1
0.9503420654558458	2.183903686675195	-0.03527895323553639	-1
-1.5181805626183547	0.32233924855918134	1.0152917658878433	-1
-0.7108807868061767	-0.7715994674782292	0.00048580761752148874	1
-1.213362565189243	-0.6108335605788275	-0.13747105448688068	1
-0.9463792817494433	-1.6440562112713395	-0.22886384341859145	1
1.8732278411674579	-1.3591676407542506	0.22438973117957933	-1
-1.1302939606919462	-0.2426144261587246	1.1141555357789867	-1
1.275255359723112	1.2547930189137708	0.6221672624551747	-1
0.3684468775874249	0.25149666591458847	1.4614760958985327	1
0.7796710992980213	-1.291016887262716	-0.7336114851705511	-1
1.3022771797891397	0.4443835800041247	-0.7762212581336148	1
2.91408245804692	-0.46092430570913967	-1.9772713109558664	1
-1.1200859150642353	1.027627930134886	0.18678178950494723	1
-0.9389962578990034	-1.5546495433585172	-0.20428109090713797	1
-1.4552981223033323	0.7437258339626737	-1.531718122655534	-1
1.5306360094486722	-2.358363688845214	0.6560353699169289	-1
0.9037090635020377	2.3798155705374735	0.01762305925134059	-1
-1.3866204265106727	-1.251339952412398	-0.024645753838407343	1
-0.6899459757083832	0.30518416556043615	-1.278714169328384	-1
-0.8074124321948475	0.2697251538582403	2.1412364741297876	-1
0.7699694431675244	-0.1650105435724328	1.4267999377189842	1
1.503139297802815	-0.45912897730125035	-2.252543745384941	1
1.0062969456755324	0.8265612055394673	-1.1658322485889694	1
-0.4662872472227626	0.4911209474716751	0.8069719248641554	-1
0.561799387335116	-0.5297943369674547	-2.2433766805422137	1
-1.4427058840797322	1.325897384708424	0.3247323442405413	1
1.2456839554918837	-2.822123169632695	0.9169600812384711	-1
-0.4518610229969179	2.5455399919667747	1.3243256277792925	1
0.7582965378258164	0.4360031193908775	0.2602001744541181	-1
0.6549164841750564	0.006540731891071436	-1.2627437701802318	1
-1.356649190346467	-0.07417816715395495	1.0739738864505113	-1
-1.4300194720026582	2.7804925297639045	-0.41813716195009915	1
-1.9572548451844267	-1.5905752972511638	-1.1105957799760895	1
0.9835858326240153	0.501035598845143	-0.9857172776261236	1
1.3718671171098684	0.036361846387651164	-1.3968947929829973	1
0.5498229766814919	-0.3233741215028663	-0.9732732291468946	1
-1.5975021124518944	-0.4301368421062261	1.8825782874117207	-1
0.9278585244282298	-1.5836874642686602	-0.03165035535830567	-1
-0.3142428755926279	2.282111528906611	0.2592909084479706	1
-1.7298512945765	-0.3652821875891474	1.1483355318075492	-1
-0.8649152378244289	0.2127087541148388	-0.726571126698186	-1
2.0702758607071927	-1.8498723407164133	-0.0015404915230232468	-1
0.702924843788714	-1.5222200114847018	-0.5216175416230535	-1
-1.8377255868406224	0.785968335638278	1.546402771377151	-1
1.6067605278226993	-1.0132914647038476	-0.32651668999976824	-1
-0.6972819756531462	0.8645547215401767	1.089468193320638	-1
1.4343665653892979	0.4445609615015375	-1.3353174050886645	1
0.8521157820378635	-0.49516781867771037	-2.4303802600937994	1
-1.8905238052731272	-0.04896672971511267	-0.3966141024800532	-1
1.6982432083721914	1.646409997943825	-0.1456908623152878	-1
0.6866390628708728	0.05043742154371416	-1.9629868089642704	1
0.24650305775484843	0.4618834699934662	-1.2316511857609376	1
1.0847609715002169	0.9834223499112495	0.42226652700674205	-1
0.5840456119241056	0.12341225548137387	1.327448931922474	1
1.1483886968259758	-1.6760180664447362	-0.3170889796982851	-1
0.761626057208055	-0.1109959277441081	-1.2253875984811644	1
0.7373634522470451	1.0784683900789558	0.5731731181472203	-1
-1.5152100177464916	0.15631896004290435	1.5609858673427246	-1
-0.46853225231744794	0.3823039901247093	-0.8761473190365646	-1
-0.7382666888270918	-0.3159379518112151	0.7746369605390074	-1
1.3048340328392567	-0.46957496713392377	-1.1039613474569647	1
1.4334582580563486	0.7369044125999415	0.05806765475860807	-1
2.2105680632722096	0.18481148894960353	0.7029137266811585	1
-1.2029411028576158	-0.196181652990915	1.8370847849485312	-1
0.666266000451311	-1.4271291809959694	-0.18360557361855395	-1
0.8560728617836428	-0.16378271709485753	1.4559212688037597	1
-1.5038102039966552	0.6131935340610982	1.3933026794228502	-1
1.1350770634138958	0.5214041336989098	-1.2492880512230047	1
-0.5296756535993732	-0.13133667291138593	1.0767233667189724	-1
0.9032518665558817	-0.6082178000337262	-1.9025454770498689	1
1.659075915859641	1.7608764749465842	0.5921097196814337	-1
-0.2981581011219577	-1.3033583490253686	-0.17098714761214015	1
-1.8224687065426235	0.012643655928380418	-2.7220638960668704	-1
0.49462799574444516	0.8045841960813978	0.015809834066910937	-1
1.5456181773544309	-1.792703133204113	0.3114993868489073	-1
-1.7401904469197096	0.5893313628664129	1.5245504095629403	-1
-1.044321189574918	-1.9129812187137862	-0.06334725391388624	1
-0.5949753049926932	-1.9398082497372149	-0.7418507655461699	1
0.7261168962595028	-0.2601078076867732	1.0217949421855719	1
-1.3050789673710428	1.117833974275884	0.03817355008365457	1
-1.1938484441820418	-0.6640892067100016	1.6898186992180648	-1
0.47576985357825363	1.4043951049822763	0.034045515758294856	-1
0.4802612026491385	-0.024890041577476738	0.4880452127892559	1
-0.659984925777216	1.8173101495909938	0.3834432754479191	1
-0.40824914326551065	-0.3078136708189949	-0.17800869166057764	1
-0.7003225340335032	-1.9349407861973167	0.319705183609075	1
1.0113964800180932	-0.008703079615703468	-0.8134829001153083	1
-0.7354813012724071	0.013391450152625807	-1.1875187661799236	-1
-0.33527644251994126	0.7993576214254158	-0.236363097397718	1
1.5392457223811544	-1.8307071926757992	-0.6157425632657602	-1
1.5313423663188066	0.13900252955667133	-1.6554281138569724	1
0.3105104667174745	-1.0669204112082826	0.42218538295680513	-1
-1.8798929235649873	-0.8451882358191697	-1.160115222099891	-1
-1.1967121488678618	-2.404636934659808	0.06225780038106343	1
1.1067429867241279	-0.8668157662592169	0.1737952662271242	-1
-0.7034440276810956	1.208012778495541	0.5476516476323264	1
0.8198836146798375	0.22835392892566958	-2.1620861410686594	1
0.6307630568924761	1.1454311550571037	0.15315575847624563	-1
0.40001439114677145	0.5878202448056865	0.38514197555202234	-1
-1.9581274409029625	-0.04496178647884833	2.5475780376037327	-1
-1.0038078418993446	0.0916277094995086	0.8319178217579717	-1
-0.7888822595076505	-0.4556579582351466	-1.0091287321590583	-1
-1.3066704751225906	0.34050328066191105	-0.8521780523533296	-1
0.8679372918692396	-0.7952910005948158	1.3600620289683356	1
1.0669835590252132	1.144435504509836	-0.036370604989309434	-1
-0.8806201500820237	0.7540447667842916	-1.5580126240994217	-1
-1.484492498367132	-0.17510549558098654	-2.0751243778239727	-1
-0.2892710045203192	-0.3104297022783676	0.6120480505090673	-1
0.5305499145222661	2.972452877916129	0.25182604891839894	-1
-1.0514736927818553	-2.6610139678521767	-0.31764606198217105	1
0.7660787156678048	-2.119016333954138	-0.23234052265988703	-1
0.7458800686111027	1.2300451136534774	-0.6515476367543921	-1
0.8673570561225579	-2.079340715017805	0.0049350611236838775	-1
0.5844709896295923	0.5842429056420957	-0.3247888165544603	-1
-1.4003914700963795	1.8440618689181667	0.640390083098529	1
0.9015315346731608	-0.5154608131907968	-1.5705364023962878	1
0.87461611710363	-0.1081649165409687	-1.7113639176636632	1
-0.957420812000137	-1.9203494537638015	-0.18612292132714384	1
1.3166414560943076	2.3180873272960714	-1.0974172480020374	-1
-0.494476997765549	0.5693651243832905	0.10162365443824824	1
-0.7827620818578562	-1.0136159509393967	-0.6533329542773443	1
-1.0853178248226558	-1.3660860321628912	-0.33375087011171445	1
-0.9720239013187082	0.12755289324265598	0.7257334226819693	-1
-0.6688477452374774	-0.0479258711018467	-1.205975517963886	-1
-0.5818059599829588	0.6347584099044394	-1.6919232571464502	-1
0.6444854397649447	1.134041395184057	-0.028058897821693008	-1
0.824877229133541	0.8886767760949212	-0.2873091416946945	-1
-1.059040616462097	0.040089817521508885	-1.478918416966672	-1
0.38168890833497965	0.011485216013617206	-0.7391080240102323	1
1.740041879692215	1.8328961950355822	-1.424472537766638	-1
1.3094333853077544	-0.1336272028851516	-1.1372583441362847	1
0.5852344827331614	0.8417672380317639	0.49279735679666753	-1
1.9949808137283054	-1.2605172611789102	-0.20748320713992455	-1
1.9107431415967069	0.04660928104525111	1.3777467882870464	1
-1.0757325795787143	-0.55979041494257	-1.1442041314827827	-1
0.8830739767380339	0.7828774232970341	1.4808551837913522	1
1.075498086705566	0.6839229149079824	0.1410950418054434	-1
0.6180765340722844	-0.18572444563931534	1.156538329721927	1
0.25151257824533485	-0.22022081379275812	1.5516379663807252	1
-2.8474581650013344	-1.1664390075731552	-0.03208660977808026	1
0.9901744422301825	1.449861171476798	-0.0978104543921251	-1
-1.3749431199708932	-1.0112553897361325	0.11826279775413125	1
-0.6238453780612648	-1.225749897535346	-0.2750378187822778	1
-1.7764826518622456	0.22507967362958323	-1.4703282235431263	-1
-0.35717160949830845	0.917431576495816	-0.0474722980571953	1
-1.1182454431613225	1.0014166551977906	0.04646183711881397	1
0.23428660819289537	-0.49296292288670723	1.3450816603245823	1
-0.5433267800620714	0.24464346880946863	0.9225906722087835	-1
1.9333882272117995	0.5156366117940904	-1.3997090460491384	1
-0.6121466217827088	0.3168664954807956	1.2532554122881425	-1
0.9113341214872449	2.8876172562441655	0.43416977506472476	-1
-1.2038470127526981	0.4670469637452683	1.0488248688133035	-1
0.6462333914577996	1.7874953769406359	-0.08545101729588198	-1
1.6131219408985271	-0.2245235425566101	-0.47105750911165006	1
0.9217750763806691	0.3775859879171424	-1.6729535951341596	1
-0.611212493454559	0.335621006792471	1.0632789140053158	-1
0.5329834258984526	0.17151744741316496	-0.9880676176218115	1
0.4441791524088416	1.1270373378487895	0.5376959851677203	-1
0.7822155497528904	-0.46997453380959864	-1.0857551419570273	1
1.0351437701917243	-1.1479353073342404	-0.5257663183286837	-1
0.778488987000848	1.138819372898989	0.013010434151560208	-1
-0.871658173891718	0.2093912577346985	-1.0919417562240221	-1
1.4025949245340468	0.5154800826422834	1.7720101907831531	1
-1.6165985338436937	1.390020005990753	-0.6847941249577153	1
-0.6347150892350557	-0.4577174434816514	1.9912956537201443	-1
1.1476746761341434	1.474381303770131	-0.4698282179156656	-1
0.44209673310381464	-0.8726077525918552	-0.04949617321891527	-1
1.0253207815349332	1.6097039646962064	0.1236134598816256	-1
-1.324503812091271	0.8355421618259709	0.05162885166131988	1
0.7861387828389679	0.6261125517292289	-1.6843873729049923	1
-0.8289571630316881	0.041691882482546	-1.76828909940534	-1
0.9244141606356457	-2.4802089368073243	0.2298159925325316	-1
1.1594312348942502	2.389795455722355	0.56445280814979	-1
-0.5200405544406383	-1.7799990913039947	0.6669457181999199	1
-0.8701573122675514	-0.17241416695195888	-0.9472671917251297	-1
0.6488207748835539	1.3029404080267806	0.5402832784986399	-1
-0.23553809365746786	-0.9589432360248348	-0.4381608593272123	1
0.7498950150674388	1.345209700124153	0.4786639014592895	-1
-1.2623195372156202	1.5700940863011563	-0.5478548593971636	1
-1.0906383834555673	-1.5040060943227807	-0.12759822559215062	1
-0.4324412604753891	0.04095985775148397	-1.1721047850193635	-1
0.597557315918585	1.4956994760328362	-0.8082012112526059	-1
0.8383738593261069	0.3420825514898611	1.072406556209038	1
1.4791334791275683	-0.765139178340249	0.20529546134349458	-1
-0.47762257256465884	-0.12606655155474075	-0.7868755510419914	-1
1.2118006511092867	-1.2592611924779007	0.6355178078284125	-1
0.8142755134288704	-0.4327852120602478	0.960188505966219	1
-0.6639209771600706	0.25546438053919424	-1.157518924077162	-1
-0.7104863456205998	-0.2481528257369332	1.731386033586905	-1
0.6543813678426587	0.09746705414204199	1.2389414558368281	1
-0.6970911944573975	-0.9642151762163073	-0.15241532977090474	1
-0.4903626348882347	-0.8881006238909439	-0.15108966781257854	1
1.1918778102253338	-1.296979213783274	0.15717905599452542	-1
1.1618088170003076	-0.8879403651597313	1.3547886068033472	1
0.6315882190721934	-1.0873103017180021	-0.34950304844551044	-1
2.658413588297007	1.1871971188233903	-0.03846922635599992	-1
1.0671043831991658	-0.34090330628201	-2.2358645177256617	1
-0.6274951703962214	-0.005399648878736602	1.280494460762264	-1
1.417516789812067	-0.26212075185080436	-1.5102273543448916	1
-1.3261474274906118	0.1650178642535094	-0.7855553753599792	-1
-0.6959792328008154	1.1418966195446865	0.36316852383275	1
0.8236386458361049	-0.9140570870554886	0.26365910153164357	-1
2.198471721324188	0.5933414712840529	2.5684631995309593	1
1.321284733310153	-0.3284130653393153	1.852467955945432	1
0.4161441283782488	-0.5707741679129769	-0.12069898203515768	-1
0.464535030890647	0.15266618697959883	2.7298966114039005	1
0.5081315362583915	-2.515040097119657	-0.8782921209806274	-1
-0.7597983856971303	0.47063137587914805	-1.4781321237369305	-1
0.9812557891142055	-1.4261265108659056	0.39392559463319066	-1
0.9546035586790271	-0.6151305062939515	0.2529207788519876	-1
-0.8517420007184349	0.4244341696048367	-0.7704391204498524	-1
-1.4446855455797487	-0.7191364848112571	1.9399309543205132	-1
0.8374294854000675	-0.2775545822346032	-1.16055753016858	1
-0.7819314906752028	1.1498458497521618	-0.043992831550388405	1
0.4617859882971602	0.3041088238855066	-1.1552181646790916	1
-1.9122265531742006	0.059365198472192196	1.0489802112080988	-1
0.6753847836862396	0.04297681207684287	-0.8565391775664655	1
0.5758275564531837	-0.34834884707612573	1.0454348096239967	1
1.0440896745381474	1.4675477185892034	-0.004944808368212577	-1
-0.6241465579792307	-0.08023322517252736	-0.9459229608257783	-1
0.6598238464015344	2.293814681946809	-0.37098272282475375	-1
-0.5582630420809833	-0.2009644077510914	-1.106196697118956	-1
-0.6001115104514473	-0.5560094188191542	-0.3005406600774374	1
1.6439989649631501	-0.05578567334203982	-1.2525733675727742	1
-1.6184369025326584	1.2874453579302239	-0.3394121942072263	1
0.9305848469965927	-0.0025857870225380088	-0.6292055708624833	1
-0.8164671340565883	2.479464215890635	-0.22483343310744874	1
-0.9679310142480801	0.44076025710927746	1.7193162557248691	-1
0.6953276538583832	0.40192939097999236	-0.9650415635936813	1
-1.5874688226648868	2.0026287332817105	0.5077044739737595	1
0.7503737514275421	-1.6859926084599786	0.8083884693534453	-1
1.6829716707139633	1.9189344842327054	0.25774260884627836	-1
1.5891237655372876	0.8839057882864506	0.5573314621100612	-1
1.61958173353074	-1.982006518915307	0.5923119254780359	-1
-0.5790281158565641	-0.6749134516824298	1.2662896818034561	-1
-0.4771082704757893	-0.820144006320429	0.18464256442903657	1
-0.9562182054100307	1.8803120737203871	-0.5188334956264269	1
0.9752667403797628	1.1515778625592477	0.21637356562352317	-1
-0.8730640383623248	-1.5306242176522953	-1.16391162764259	1
1.03000318884995	-1.8132502627340035	-0.9278284781021272	-1
1.6112675843309354	0.967899637833631	-1.6630929163660644	1
0.28108008028697873	0.10834047881499023	0.9087831170575964	1
-0.8911122701877547	0.16741670046758259	1.0130540225376519	-1
0.9566788053080354	-0.4087233429731031	1.4081061573433244	1
-0.8934842063456865	1.7340846196255963	-0.02443940402594093	1
-1.6024732062804508	-1.0049013245789316	2.066381775475383	-1
-0.9048393765573698	1.0314518565233957	0.12970797185566077	1
0.6128220445682875	0.8211268370759319	0.1464456305294506	-1
-0.5853418992534782	-0.9337724129934308	0.21788289761833154	1
0.8519812717882316	-0.3227064363206137	-1.503876547703551	1
-0.8650172377836776	-0.4104992530416889	-0.13113301855627849	1
0.7367075501540765	0.7802251285951579	-0.28750105977945	-1
0.3372759460023372	-0.5149924467837611	-0.08817359950552746	-1
-1.6339122328350382	-0.005381171403721314	-0.8589942051362991	-1
0.8630125292002617	-2.198536365785166	0.8868899619411338	-1
0.9421291619902935	-0.05541522601540058	1.0710002322822614	1
1.0654050410850247	-0.5956595135183237	1.603297364437049	1
0.8268360082204232	-1.1684036383930867	-0.19997960981242394	-1
-0.6639734264604225	0.5077623528286596	0.023269544022166157	1
-1.5111335056018458	0.5743689744381476	-0.7762189178187041	-1
1.1203349116347479	1.0169140198264606	0.3424121777742932	-1
-0.7872303902556188	-0.14363705625576975	-0.9310621086916359	-1
-1.3259110458700898	0.6521965254558927	1.444043959921471	-1
-0.4900167221053871	-0.5168177012573909	-1.9072459557791035	-1
-1.8046409437242847	-2.460015996599697	-0.04163277459005948	1
1.3150283798363238	-0.9854176334374009	-0.6074364660619544	-1
2.035416052457845	-1.7814428215865918	1.1655897060216178	-1
0.8021026579925974	-1.3652448961248942	-0.59705551640268	-1
-0.6402946821372423	-0.5511568964265046	1.451663851298042	-1
0.6320531572280418	-1.0371922499156143	-0.2094247570269214	-1
-0.48684754553441434	0.17044498916990836	2.7077770677954978	-1
-1.0075620514987098	-0.33898876400325345	-1.1783896433954202	-1
0.6965093114182204	0.5508356805572511	1.360408475799086	1
-0.37725404067652657	-1.5526474178171006	-0.2916961204675221	1
-1.7661872119265885	-1.9075908927573921	-1.028770139070192	1
0.43432443525706055	-0.21856589716915287	1.108532084133741	1
0.6998258879206978	-0.04958321586816701	1.4799453671182983	1
-1.3314582297659925	-1.7473966574803432	-0.13430589020532735	1
0.41684998844695714	0.03457371794365668	-1.9594123972241027	1
-1.916375091598203	-1.1156286896017156	-0.22017238539661604	1
-1.2412598192842945	1.6937254661248564	-0.21036220091947128	1
-0.6392761239408085	-0.5381398781821585	-1.658902689621764	-1
-0.41423851393021505	1.3238451119190833	-0.011320886320906649	1
0.4201690910396614	-2.5771580476000366	0.27336931535399395	-1
0.6813513878210117	0.35262631925461796	2.2646204293302628	1
0.4469119929779526	-1.0669871632766097	-0.12102439811004505	-1
-1.147091495968841	0.6004665518379484	0.08681091480303364	1
-1.0924366543390618	-0.7536041672124709	-2.691704754296322	-1
-1.0731562020418046	0.13544180769782768	-0.9378258812120506	-1
0.787494538180695	-0.07455567789086369	1.144493131720393	1
0.9317270170694455	-0.8556709572009915	1.7923079567712994	1
-1.3193649468634898	-1.5078033329878722	-0.5548810386359749	1
-0.5281820698013531	-1.395407428165436	-0.5959078681998717	1
-1.6182741126660465	-1.5338675481226998	-0.5977442824754172	1
-0.9854253686746497	0.5757354594122013	1.757871767171989	-1
1.5707294432725343	1.6508997226593483	0.06549710774363732	-1
1.0508776401596789	0.4869807034748499	-0.7155389189690616	1
-1.1079085645167919	-1.3546865951426597	0.7070000127598074	1
1.255397203400318	0.18887223004537937	-0.8552493694287131	1
1.157302432859079	0.06383388878326751	-1.1490339001080145	1
-0.9221047121588359	-1.1454494070052397	0.1969184530714784	1
-1.3527391627308107	-0.416333238904979	1.422831391905052	-1
0.9406498397596478	-0.21314089614597737	-1.4293809792029584	1
0.847965242616395	2.6828462071457757	1.4001744853045017	-1
0.9117201691037575	0.09083784096176886	-1.3053579979147472	1
-1.2268982070534886	0.5120862002176113	2.2636065111922092	-1
-1.1059383592755736	0.8414181752012763	0.02827160103372453	1
-1.364917726360122	-0.2704242474728332	-0.7839796963297399	-1
-1.9395281047376896	-1.6411601216200353	0.4013978209962952	1
-1.0591244563439186	-0.09839229162574148	-2.1314657672843493	-1
1.0972549925559016	0.6886952416009593	-1.9009187328003478	1
-1.8720674849150154	1.4065668222011192	0.002360422331173124	1
-0.6416375541669151	0.6911231679712438	-0.9988840857929742	-1
-0.47066479377879356	-1.422121578062694	-0.41374425444657564	1
0.7195431365456582	0.9492276092884965	0.10168918164174055	-1
-1.1181650594967494	0.2615992417890192	-2.094415679576982	-1
1.025422733570239	1.631374749533383	-0.4645286996734239	-1
-0.5812565538189108	-0.9787564077170908	0.0897726974718071	1
-0.6229381497754816	0.555418903809702	2.0760659385045903	-1
-1.577631299112127	0.35036442032470966	2.0432606909738276	-1
0.6803188471373632	-0.08601973135885206	-1.3646853228413454	1
1.1423242290947884	0.5412362778756704	-1.5104363780462817	1
1.3299788914326118	0.059737321582257696	2.2433288746694813	1
1.2526096809072997	-1.0399747224274651	0.10927753865797113	-1
1.8450656871256261	-1.6241097796169663	-0.16089029438368127	-1
-0.7172246435245649	-0.8195272355026113	-0.2185704865306755	1
-0.7685551086922104	-0.7436346151324468	2.2338488104555405	-1
2.4715569321405297	1.4656569761192335	-0.6756745676530529	-1
0.7918641415755431	0.41890925207491825	1.0435947284893965	1
0.8035782648040911	0.17313725237700237	-1.1220458068894428	1
-0.8336529160232827	0.3874011886305257	1.5038752478417432	-1
0.41194725161491513	-0.16978655769723486	1.0934542775393683	1
2.1063003380712124	1.0766009990407788	-0.1647307376687352	-1
1.5426441149502068	0.03949067188555458	-0.9399553409880653	1
1.1501882710945088	-0.0543486792361804	2.205478223553066	1
0.9351042347398173	-1.7183978629086216	-0.41863596451269497	-1
-0.6674045691613172	1.4443120579123534	0.20181466930241185	1
0.478586296397049	0.34725768503566473	-1.3321589788742223	1
0.7552171107543064	-1.2261034768802463	-0.1793262769996499	-1
0.9065896164830749	2.218531391434595	0.7798751795553187	-1
-1.1477990300611516	-0.07281942039623023	1.6630777091150486	-1
-0.8825670336076824	-1.6722885598829216	-0.6422551886042945	1
0.7581028057868283	-0.041441077639026186	0.6718687337668232	1
-1.412332558687338	-0.6057737055689683	1.0556854991801197	-1
-1.404098056801494	0.11417671902706082	1.4613636174196347	-1
0.7859616327955652	1.1310020771017495	-0.45877538221944536	-1
-0.792674978810537	0.4017747582874918	2.0167771088708077	-1
0.4922300879119481	1.803273983590885	0.5489155170787182	-1
-0.7333774169280981	-2.3124142115157604	0.08750487691347206	1
1.2400087260636374	-0.778061906101883	0.49683782395268894	-1
-1.1715659938715053	-0.14736060189911557	1.5246365349133006	-1
0.7054487177263268	2.1396134934133113	-0.03410983581339596	-1
-1.504850128610572	-1.4911947788105024	-0.3308898584761033	1
0.7427643600394026	-0.3451491199408159	1.2195213095030846	1
-0.8168089130314355	-0.8429942518916111	0.20968058585416582	1
-1.1406288599351153	0.35873993116221514	1.8436263603766723	-1
-0.6824971543711627	0.8561242247938922	0.04301087073089986	1
0.6835871923053259	0.20754162868237286	-1.6378202236704043	1
-2.4580292951661864	-2.1517044537507393	-0.5419022651864823	1
0.7002393403843841	1.202037250714793	-0.5278128767581423	-1
0.8561011844383529	1.0396751044867851	0.4517027419270641	-1
-0.8486514941889594	-1.027359478724393	0.3552612174991212	1
-1.5881491009101758	1.5407927590864645	0.9131360901668857	1
-0.35638292692595824	-0.9647237244661673	0.17639292323424138	1
-0.6688158406189024	-0.45444828659527614	-1.1104370675213018	-1
-1.6183867016122848	-1.0831981563726074	0.36270997559739493	1
-0.8398531936307816	0.025639602386271977	2.123768966757614	-1
0.4287192984982813	-0.9789560821737626	-0.4883285542210913	-1
-1.3521373653071216	1.6784370593571094	0.5252199544902373	1
-0.47768342914747147	0.2728788567760322	-0.6598285748191903	-1
0.5549995485274705	-1.7607368042831746	0.43475090436873104	-1
