-0.7414373983213919	-1.8181480669629473	0.1884189559469679	1
-0.5154518085048327	0.2798099851906812	-0.60154763760328	1
-0.5785889484340137	0.8346020821581273	-0.4001996751118706	1
1.3267769181108975	0.48978037442455913	2.1109175461976073	-1
2.066699798760991	0.3114448217910064	0.050999527464852604	1
0.8751988613851913	-1.7196403528011925	-0.46035665254302627	-1
0.3983749410766347	1.4960563309538024	1.1483306687295864	-1
1.667870608939579	-1.6191081881109786	1.7589557116467889	-1
-0.4967643452318365	-0.5548441643570665	0.060938789993242586	1
-1.5308469798363957	-0.4045330227200153	0.6174160847575836	-1
-1.642225533200767	-0.297468340104615	0.3503816429719213	-1
-0.9302468563119389	-0.32024318960376	-0.07825778307173475	-1
-0.3620964134044313	1.4747827501852244	-1.233126036984857	1
0.4986645574014363	-0.07695125430291737	-1.2883313358692603	-1
0.6056448751649322	-0.7608331766420348	-0.17214776054929423	-1
2.063494952462019	-0.740925882100028	-0.2154936307842315	1
-0.7958828899370737	-0.4223795784642893	-1.1737146535463439	1
0.8930149614805286	0.2644483821664778	1.352130196687593	-1
-1.6209256222523551	1.2385713943187988	2.231327872824747	1
1.4816502653321244	-0.05379774028127811	0.01913566959339962	1
0.6753619276523888	-2.1216246510242747	-0.5731327779634636	-1
-2.1984917080384503	0.44914402624239735	-0.8342906403381811	-1
2.0009660583191238	-0.4580826053261746	-0.5455467759777537	1
-2.1444455030945466	0.13533151409261093	-0.6055975838924801	-1
-0.9131556568440203	1.928924203417874	0.4322548403860538	1
-0.6141184534629949	-0.07445430739819933	0.16926023233100007	-1
1.0613919737314372	-0.431447655000871	0.08943615810444416	1
0.5276420194328347	-1.045100813312825	0.3295653014443077	-1
1.1199406296242143	-0.30695242123823696	-0.20000402831111558	1
1.4538664813820412	1.7975927980496786	0.5554724047899433	-1
-0.7583974681768926	-1.0262234240125248	1.4741815241878748	1
1.1305500040977436	0.3679821654789313	0.12233728151818546	1
0.30107329915666675	1.023618376496272	-1.355377231881024	-1
2.166295397565729	0.3911389082118625	-0.6012387339793206	1
-0.8005723092136248	0.5241794543133736	-2.1223215192718707	1
3.108949865678123	0.4917058386862766	0.14312500837016362	1
-0.2728297007087237	-0.3925341798269231	0.7946286766288259	1
-1.4624162139093853	-1.9870177807089637	-1.1105676001917277	1
-1.4178108567173955	0.028076058708075752	-0.3579592365656623	-1
-2.407903737832194	-0.23584983024299253	0.08510803367801854	-1
-0.9008473673920259	-0.20591687775095477	0.5473871471407497	-1
-0.5785357186632655	-1.354439905983359	1.0621372200571766	1
-1.0465367412170834	-0.010924641342062648	-0.07431204262583499	-1
0.7453189877589707	-0.45566716630852844	-0.9585648652195424	-1
1.2531385370749404	-1.3652498097789545	-1.1555390162985266	-1
-0.22937220903175698	0.22402641814751872	1.935287503468237	1
1.1377060997418638	0.8967314604001793	0.9476580942258622	-1
0.5639997912288329	-0.653623328430915	1.4099703358944928	-1
0.6655005795661948	-0.15471744295161605	1.0356869907066815	-1
0.6422155191841528	-0.8609766997991634	1.113496102646165	-1
-1.1574542619052048	-0.013067136917124684	0.44792818362115333	-1
-0.5036184909126715	-1.4048166585291564	-0.1588983236921488	1
0.8040731469195637	-1.5087700965903696	0.13351555713141636	-1
0.5838573043132306	0.5129056800067974	1.1170754492453996	-1
-1.902162593577252	0.2992689833884311	0.7787582013232799	-1
-2.5276235936678515	0.08989667733529179	-0.09355809350625006	-1
-2.570258833733943	0.2631483971895731	0.5395464706424383	-1
-0.41865267057077293	-0.08287017075838375	-1.1167774092166973	1
1.1184794605677173	-0.10965056640313638	0.5352625380739995	1
-1.8038387459093803	-0.04397075561602291	0.20974084647225216	-1
2.0026401841192247	-0.6956836112104072	0.0820764859756804	1
-0.6787259943746218	1.9822513946349045	-0.5535444245145754	1
1.79737692752941	0.4632305226637143	0.060577022801113926	1
-0.7309974669843367	-1.3011779422413854	-0.7317394784910237	1
-0.40153164064761193	0.7120472975940335	0.010012893102968053	1
-0.6962267778532141	-2.537318058378009	1.1939661022784511	1
2.511629958797138	0.5989985249565295	-0.224298730393087	1
-1.7725042666408724	-0.19598770446032523	0.178397732142772	-1
-0.4399537573471558	-0.7799254030119364	-1.3446236352219625	1
-2.3685684825814954	-0.7509546708595827	0.04630092548346112	-1
2.665805311638134	0.27797630754761077	-0.07647770530325627	1
0.6085155052725155	1.2881760694409707	-0.9749985882160092	-1
2.0616970430472286	1.0024651147460708	0.14583269690729198	1
-1.2650542324441176	-0.16584462440758518	0.1370138717986257	-1
-1.2859510009933728	-0.24956455156133367	-0.3103800571403259	-1
1.194432389151251	0.014493188560520462	0.32686489059131757	1
1.4408056719647402	0.06099188805071021	-1.4678399311915604	-1
-1.5272887256493044	0.695900171570327	-0.1014449327995673	-1
-0.740841659144392	-1.0474207164015321	-0.7118121990006364	1
2.830604365756498	-0.6002780150412285	0.04022447460854489	1
0.5671687880778525	-1.2294873214546822	0.854829695079512	-1
-0.4967206160114942	-0.6595018030704621	1.973712216113645	1
-0.611888933492106	-1.6284762123540526	-0.5305474400530305	1
-1.5610792794410326	0.5219096463094856	0.0790930168767437	-1
-1.3898796775106694	0.47379838903332416	-0.10085113062779705	-1
2.0988430103286255	-0.1639995100824777	-0.051013848275367715	1
0.6203294474536368	-0.3784796456961224	2.2513439838754397	-1
-0.6725220500278879	0.8591977417703451	-0.6385584762076905	1
-0.5434379379951678	0.9835708233138067	0.9177421208712352	1
-0.19122430681226552	0.3781969447873199	-0.8420060191732036	1
-0.2807326786886501	0.676116802050507	-0.7245015277502251	1
1.9199527534040397	-0.39842995924237995	-0.4213120246703536	1
-0.6394213077969915	-1.1646655786920022	-0.3403237135899161	1
-2.6437176733578225	0.03727812196317828	-1.4729031998081725	-1
1.4492122441354796	3.0480473808256225	1.005157657673922	-1
1.42325291480224	-0.1722568675340559	-0.12906525960816945	1
1.0750767816273137	-1.2142489566666623	2.9549420548784076	-1
0.9158790675499984	0.023396124360884573	0.19791990752435007	1
1.3428997865024621	-0.06537605303906634	0.013862653344439108	1
-0.3868681541887896	1.4489281270395866	2.1873310731695206	1
-0.737679491134866	-1.3488170777107111	-0.5596216357481762	1
0.3767671122641882	0.20765936483113712	-1.3526483798193643	-1
-0.6714819939165156	-0.331826818899763	1.2017414004292355	1
-2.0612439537204152	-0.1948324159848643	-0.23842649942088356	-1
-0.8612912879145083	0.541038521714503	-0.9017997684912699	1
0.842114552048888	1.7990607886709942	-2.328500917456143	-1
-1.7297068678055685	0.625549254495359	-0.0738641915382712	-1
2.216985588461351	-0.3211339189312157	0.20616290892275135	1
-1.7988101588598946	-2.2445429061700417	-0.2534040616969399	1
1.5412650865817565	-2.453491953221288	-1.205863735578699	-1
-1.1216265667904914	-0.17332780608486928	0.10609689652084081	-1
-1.0630953484299333	0.0015012429217239644	2.136394220735477	1
2.1256754641475495	-1.0115931322766085	-0.037045785933989606	1
2.135838848046892	0.1433692832991784	-0.25223117495383063	1
1.7021895115829204	-0.1349255016433821	0.6194033946469595	1
-1.1249388154853877	-0.6556381647432358	1.5335916635079967	1
-1.6097213174249019	0.23249533445171644	0.05107100533588891	-1
-1.1273778986157184	-0.4343110814390192	1.639541853295876	1
-0.9167809641275677	1.0627588815125748	-0.20958317410145122	1
-0.9074480244218798	-0.116665275741562	0.008270709532914549	-1
2.103720991647295	0.33102902163705705	-0.20279000107607398	1
-0.21975823642629871	-1.0122595445182287	0.36204936129974946	1
1.0683357129177355	-0.8809398553976922	1.995303549173443	-1
-0.9740947589000399	1.9742003432795951	0.5262748429848075	1
-1.8084193709055478	1.479823870653433	1.8205963476513602	1
1.2969576934047198	-2.0538544453372185	0.4437760887087988	-1
-0.7212158471191181	1.5345315888532083	0.2433891223318455	1
1.173756153088248	0.05586215262199484	-0.7226817056192316	1
-1.0959066185677304	0.01377680081812882	1.4262892996918233	1
2.3149239184689767	0.6117039029914381	0.859621899547284	1
-0.2968728542865033	-0.9906211436534479	-1.6174470050313705	1
0.620578977645152	0.8555051375211884	-1.4592863087329726	-1
-0.46273972867422275	1.1987891112964393	1.9336071629562228	1
-0.8808879307642317	1.2120037257384995	-0.7749208930536099	1
-0.9842022017003136	-0.8132855162890913	-1.4417444801091253	1
-1.8220754223778102	-1.677698016203756	-1.9006659737052436	1
0.33643756096563865	1.2279764835122702	-1.0699504259465564	-1
-1.6121483890721358	-0.27760538363330856	0.10294653143938691	-1
0.9719865649933235	-0.2141567967008038	0.26308888175420103	1
0.7065528012043778	-1.0333351965673707	0.4559018775361845	-1
-0.7456219175556317	1.209392114722001	1.3671446908945823	1
-0.8287428093327276	0.059594252537885375	2.1945881973024077	1
1.8062235542884737	-1.293728528459803	-2.70409933067703	-1
0.42629600510497206	-0.886335002569425	-0.6960011728791614	-1
-0.9186761167992267	-0.615063579085966	0.9690996958651837	1
0.4998928839146115	-0.766449410373844	1.045390102348451	-1
-0.6681119548725147	-0.659851087560322	-1.8241852388422992	1
2.086593841588612	0.33093862257763984	0.19129740026521275	1
0.515751880563197	-1.0904238842141876	-0.2981564164206897	-1
2.8579235078017717	1.278501554771482	-0.8607355584730023	1
-0.7176487687240405	-1.2740175585431053	-0.9501603583693395	1
1.6358447391526338	0.4143061938840833	0.2564641240884233	1
0.49326094180638375	1.0397849631266414	-0.6922416485630936	-1
-0.30205191840262446	0.954617114493403	-0.11996798242285622	1
-0.9630031243228281	0.0029910821680474223	-1.501285805298072	1
0.3965261442680774	-0.17349847826655534	-1.5499813730175234	-1
1.777343985397434	0.5052038296935336	-0.09126475426335236	1
-0.39436906962235857	-0.8709913092330228	1.120753082736534	1
2.0910225208400908	0.14032770289801424	0.41654241346814563	1
1.8440863844705444	0.4702139192898937	-0.18349357767199106	1
-0.8061856010483226	0.9271043497852429	0.8210056941193188	1
-0.6559630050620412	-1.4260971303832113	-0.43564659147741214	1
0.4640204108979301	0.9635686437937308	0.43569024724418715	-1
-2.252349864154854	0.926646104307081	-0.001426156593097295	-1
2.621926143099639	-0.1970142971241941	0.14703258195835572	1
1.7552723950888773	0.721801311971245	0.0374970636024271	1
-3.2172587746205012	1.4585281505846621	0.3320098498667556	-1
0.34098708162622027	0.12861000605893577	0.7796462190726302	-1
0.48299162900745957	-0.6949850318978079	-1.1653111052021534	-1
-1.5282278251802865	2.083904850707139	0.7895541011167753	1
0.4538758149713128	-0.5489411593184275	-0.2556418975130971	-1
1.9667363238507916	-0.2215875574077121	-0.3906322490606018	1
-0.694466757290938	-0.19918810443664348	-0.15367487251651682	-1
2.2902535683765115	0.5379792036464767	0.2218627975923298	1
-0.6885249954932964	0.305138622204703	1.8282368812245318	1
-0.6049929730656173	1.068073075665894	-0.11829923677390608	1
1.3147786460571718	0.041191709802861916	-0.5764964867766973	1
1.9334445049942373	0.9993474722239875	0.3578039149878731	1
0.4586316180255886	1.7640124971238984	-0.07396394645774225	-1
-0.9821219445373883	1.4067949494373968	-1.4680623280735363	1
-0.77949599766194	-0.6396000312986465	1.5145983269722463	1
2.8623022681582	0.5214369966751281	-0.9157642583475541	1
0.24152892335644177	1.020359668432875	1.424799696085656	-1
-0.5551752686695667	-0.40083115528519864	-0.8560047073372075	1
0.7771368347048861	-0.18160944196415524	-1.3505514047694531	-1
0.888394618093185	-0.43571659487418946	-1.2269871186799552	-1
-1.5307691732312876	-0.08210888945556657	0.738432205576307	-1
-0.4729174193974884	0.3323295876342059	2.582998635079304	1
-1.8754797236254834	0.028375523573499692	0.014766946333894516	-1
1.7604373505413602	-0.042528039258494625	-1.0674046714055665	1
1.074129576446739	0.1327368849289479	-0.4812278673404935	1
-1.6039901262564786	-0.0061396258373918764	-0.15210871609461704	-1
0.6772302401288971	1.0410040739808808	1.5345837216412952	-1
-0.7121898365915795	-2.11383211853981	1.7183963768175936	1
-1.2075721055760578	-1.5552311639451672	0.11489316999576149	1
-1.5900718520609427	-1.4647067096832682	1.6010410949281528	1
-1.9237167623709963	0.9132189151639841	-0.44701825993621375	-1
-1.4330927713865362	0.22091912843971373	0.2047164943102179	-1
-2.4406619900410544	-0.16145100691734515	1.1781816559118938	-1
-1.4038272300110994	0.04388973749302339	0.27526325459867784	-1
1.9688132282473854	-0.2541594071667907	-0.6242424319727347	1
-0.7471398122838177	-2.1907491247455266	-0.36357264730888195	1
-0.8803635565296433	1.5910126192856184	0.07809918694999285	1
1.713253937003418	1.0813550093953637	-1.9130931861048635	-1
0.9363066709346319	-1.3504768581943578	0.28364164574014933	-1
1.8424563233028808	-0.7815577091540457	0.22161948703832884	1
1.5843623059047158	0.8380982819494165	-0.4002062734891387	1
1.9258402423304621	-0.0937002161034466	-0.6663697007991524	1
0.06921198844607511	0.2482245575352343	1.7098741443988914	-1
-0.6929518459357368	0.057396822997373344	0.050410038659157975	-1
0.3484158341274358	-0.24202053358787726	1.9914096211903578	-1
-1.8757179331808418	0.11540566907269134	0.4581432109452308	-1
0.9302987319969923	-1.26168277585972	-1.5841990053370574	-1
-0.5328860915969126	-0.951256710215631	-0.9785048585129676	1
1.7804280628379319	0.174955167158555	0.25835414391976513	1
-1.098053243954795	2.126434963836336	0.39113941385985684	1
0.8146602623142943	1.0729979532960117	-0.057130845826452406	-1
-0.37351884416078984	0.4471926814402217	-2.2025875986783423	1
-1.053753176459385	-0.500727034217829	-1.354080876900839	1
1.609906978273877	-0.6070898762267807	-0.3280519984708738	1
0.31550979163681486	0.23065029707391127	-0.8587129929288078	-1
1.6695414185473962	0.059499729867018014	-0.6114857062078616	1
-1.6832900719480037	0.4470460994311083	-0.05276946218829007	-1
-0.8944468475130958	-1.1189955666787872	0.5490361333840242	1
-1.3579706116401216	0.1160787824505424	0.02509153674735877	-1
-2.052882575798958	0.0012094779234426223	0.5514319866064521	-1
-0.9704415467148628	-0.056278377035578135	0.003694711675714197	-1
0.825258297479204	1.242908224393843	1.407090549800228	-1
0.278806667448869	0.41229477521837093	0.3015537480727282	-1
0.8872847708638654	-0.28874066948545923	0.2660647212880045	1
1.483596147080769	-0.10014793035300129	0.30167761142071525	1
-0.4588526485213101	-0.3700276565056966	-0.14039033762039393	1
0.4396630165175259	-0.28021400018046744	1.1740455777892735	-1
-1.4690960351557818	-0.0634434675972537	0.4861814435198679	-1
-0.6779894949743039	0.5928855362408623	0.959275313147583	1
-0.7621840105465196	-0.062154973580675225	0.21929190347941485	-1
-2.0199858354511546	-0.31796881971013674	0.5058781137026489	-1
-2.692559550404072	0.3471562004722726	0.14237278408782958	-1
0.6863240611254392	1.294888351796569	-0.016680446965076996	-1
-1.8955328572916195	-0.5647167323953476	-0.02359942508002884	-1
0.7774991934484711	-0.866172636438644	-0.8055625830722563	-1
0.6769167285708013	1.5027456098711758	-1.9574306545852176	-1
0.42572411297552293	1.0265595160325123	-0.9714776848832805	-1
-0.3636838617342667	0.7164889978954333	0.42995911651743585	1
0.4785927164956443	-1.0027542988248663	0.5652826146789749	-1
-0.689017357968496	-0.9557929377162081	-0.6045262238929908	1
-1.5746294421666842	2.8056105659766866	-1.3282095719326423	1
-1.3032948704275857	0.0741031224466944	-0.03984720539295826	-1
-0.4947819981966782	0.3218241496728676	0.9262537599621217	1
-2.499924492541364	0.7930980977881184	-0.7280983292840584	-1
2.0510425276989337	-0.6654540176720389	-0.2159030773731422	1
-1.3300425439450834	-0.25615792978606977	-0.4350900504009686	-1
-0.7527919235810461	-0.22001037899495093	2.1602770306974466	1
-1.9618490021002328	-0.4627093916267619	-0.14763431589339274	-1
-0.4347327827134625	0.4451033408311421	0.6367152760602919	1
0.45717752517921717	-0.27517871450553855	-1.5637279389555898	-1
-0.4576377513656792	2.1594469229121023	-0.43972658307567825	1
-2.288902956362426	-0.4150346385832149	-0.3433972175654697	-1
2.1533231465116445	-0.5191227755908959	0.30442600763606253	1
-0.34890599248398957	-0.5060169163104946	1.099001399124508	1
-0.7971924420883327	0.5415790450140006	-0.7814183098218533	1
1.1816769736024906	1.5303806775876392	2.2123284248340154	-1
1.2684838887521481	-0.2005447983014463	-0.052195441368779884	1
0.5828546127318703	1.4542878042113765	0.8836155129708418	-1
1.286034830813815	-0.051082007009161184	0.27012778854251446	1
-1.2142300652639535	0.10381926706232814	0.2742259706722802	-1
-0.9832919440897417	-1.3263652998465245	0.82819379250263	1
0.5353594330430278	-0.2647216781544472	-0.9092339745249503	-1
-0.3212378858566886	-0.5118457271719871	1.3531775251686418	1
2.1385256676833184	0.5646864225280755	-0.6162722508436688	1
0.47978499777474	-1.0875510937750807	1.726125920095539	-1
0.4831767617707014	-0.3188369222964134	-0.8849208385311154	-1
-1.7802731763125044	0.8196713146797099	-0.7753239246743444	-1
-2.076725600725298	-0.585322722965453	0.14677895698923468	-1
2.1501285741274123	0.025657973077080166	-0.5120720053861726	1
-1.273231760799544	-0.10845658859424304	0.15473009407825505	-1
-0.8862445711362149	0.08645574788400182	0.3575419770432634	-1
-0.53976854329766	-0.5461509926155468	-1.0737169392695678	1
0.5513755635717088	0.9768190042187963	0.33150913562586193	-1
-1.1615980746206362	0.4820836521447217	-0.27691854782692477	-1
0.6651186327408721	1.0321435844905762	0.9736058783433004	-1
-1.715129595673042	-1.0471905154060206	0.07485260358564073	-1
-1.0748741743822146	-0.8891252564405312	-1.5509386880723788	1
-1.2679894423011409	0.09206080303241682	0.30043449331878624	-1
-0.7769395235887836	1.0701313015986502	-0.28126424976794295	1
-0.24131221980897993	0.8941857781257094	-1.564793389716265	1
0.7506199719251897	0.6840528046483426	-0.8124880040415148	-1
-1.4012527302890772	-2.2796547229041386	0.1180621663739798	1
0.771954451863475	1.5631477543280337	0.2051705455919089	-1
-0.5467916636501896	0.4962214616160603	-1.8584006209921011	1
-2.0368234333051807	0.15118096485662127	0.04176629722354075	-1
-1.3338010278429495	-0.6128734820584294	-0.17242650789436886	-1
-2.1684118302160504	0.8517893781709018	0.8703789834297568	-1
-0.836645296557819	0.09596528310825189	0.02030834188769029	-1
1.706707319522474	0.047907720088721524	-0.1493673347525778	1
1.6071638630365772	0.07388646107537128	0.009881898301126091	1
1.2207625754195865	0.1266031443172538	-0.34901031487877066	1
1.4149725025961213	-0.19173756904351869	0.063275209965403	1
0.6597497605100894	-0.779651796566516	1.0426226650951962	-1
-0.8793893561939057	-1.3382748210456166	-1.2982903157695789	1
2.0002950806096513	0.12039466745176826	0.8080184137681103	1
1.3789928332548378	-0.7853911981779749	-2.2213485646318385	-1
0.6381215079147877	0.10041098488905956	-1.3238263698540687	-1
1.5930592039566975	1.643497268552987	1.7356768189518232	-1
-1.8415339328997982	0.08744360065547345	0.7501409957901664	-1
-0.772337496100228	1.2267923683438644	-1.1426866841971395	1
-0.2066434954141336	1.6697056164482622	0.05466670272841298	1
0.5000793418493944	0.3307971372219668	1.4425283464689684	-1
-1.5754763120722068	-0.5316623738165331	-0.5815129491259964	-1
1.2585903665138531	0.015216803180862807	-0.43818188127534247	1
1.6077828712488278	-0.11819404723212497	0.12090767222320326	1
-1.6092532676356148	0.14302956409687656	0.7514318710993125	-1
1.0444242865451594	-1.393640042027682	-2.352089686035932	-1
1.7239397665718597	0.3871607174344234	-0.18449574300490024	1
-1.2406864418134453	1.1500479933708763	-1.834887251486858	1
0.7276088902520024	-1.415462593320102	0.9943349781760233	-1
-1.4861842325773253	-0.8864073644489097	1.584576349472992	1
-2.2832447780029717	-0.719232036462749	-0.06725391140450786	-1
-0.3315233592308479	0.7616500994485758	-1.2754031096200045	1
-0.9967336760617006	0.3307707865819176	1.5107169151080455	1
0.952315648663666	0.3602965934521329	1.8060343662874763	-1
-1.654763954048853	-0.4848189983000764	-0.11541058967016707	-1
2.1755939871946395	-0.09347390644626052	0.38266513208855035	1
1.4109307715762898	-0.39033486655128247	-0.053176224172196265	1
1.2116286643436769	-0.009452630554360004	-0.3609924818351378	1
2.0839211450157396	-0.3275536229728978	0.8936052548405959	1
-0.6529475184595921	1.3585463980989017	-0.6473642345849553	1
2.046560322189104	2.011980294580343	-1.6937399461073637	-1
-1.9727707961500869	0.20266436074494645	0.07433230359762692	-1
0.8230950903784122	-1.2065532583519305	0.2634987706814515	-1
0.7270306284994594	0.9726037039281341	-1.5758804316669304	-1
0.6435156764148497	1.2170405449844224	2.1385699657121267	-1
-1.6827773396966432	-0.23756960301376237	0.024192773766163325	-1
1.3912151805464292	0.06882254253267536	-0.8561300755887823	1
0.5046148327505208	1.1741880825772195	0.14234498613375499	-1
0.6806114185711715	0.5218085530670413	1.033366926117829	-1
-1.7346395006867068	-0.3347853404850972	-0.0959828464959544	-1
0.3841752065160482	0.9525407926897682	0.06852321535904297	-1
-0.757348719818336	0.19421108717800598	0.12500321047412813	-1
-0.754170699840529	1.1117626048009075	-1.8156614254143983	1
0.904452489448291	-1.339780472373517	0.2675100796566096	-1
0.5226821641948004	-1.5658646526907187	-0.19358452612109972	-1
0.44226245913311896	-0.32746196831947544	-0.32147358849545926	-1
-1.0484097387356126	0.2110126646070942	-1.761716210585457	1
-1.9031848601722203	-0.362453212968559	0.12356817272614691	-1
-0.8294871365379266	-0.12403827291483434	-1.646028210454638	1
0.8338184817173252	0.34926010231233356	-1.0371917042064371	-1
0.5176249707480062	-1.0557261356410974	0.029503073312859375	-1
0.6350567633962594	-1.197163956253864	0.20730347570071306	-1
-0.8263376436029722	-0.8207023962711706	-1.4062650577726794	1
0.9420502396988925	-0.8347832743802386	-1.6774886048241322	-1
0.8490148997701162	-1.8368867736322443	-0.06339296154663686	-1
0.47775662321638335	0.8881914391179442	-1.6829150416965861	-1
-0.6180968510020065	0.5089242023738733	-1.5251637025670919	1
1.1762945507715248	-0.13730946039612185	-0.37463894792785196	1
-1.0710493606319347	1.5033503723233632	-0.24785124772071043	1
-2.153253750947905	0.44178594672397536	0.8682024657236188	-1
-1.2922559854080533	0.6738646491164969	-0.35305246442126703	-1
-0.859263107315209	0.9324221862430087	0.9038969682202416	1
1.4491464636526186	-0.12393288684629851	0.7203780922517978	1
-1.8267638203012149	0.38140559763603415	0.016180553995395596	-1
0.7917015196675765	-1.9911078742370294	1.0484040378048018	-1
1.052682263586761	0.18099358541344432	0.13057495559930457	1
0.6624584549675911	0.879943022953076	0.024433676703296908	-1
-1.3548080190822454	0.614529969070411	0.3109999846336085	-1
1.4400549739269835	-1.4351950667003597	-0.9638037277563282	-1
-1.939603628130202	-2.2734575494496685	0.9363765246808886	1
-1.6477701174053943	0.36709965313758475	0.058326788874424274	-1
1.6026705951259776	-1.1110409398751064	1.7334949891604137	-1
-1.5411337470411288	-0.07313939162124705	0.6242372631989145	-1
-0.38464718866406944	-0.6470486347822302	-1.423765099332752	1
-1.1517259528471986	-0.08061978709501715	0.20147910526035795	-1
-1.1943412562259454	2.101645132201681	-0.714222977163061	1
-1.41434617157989	-0.1962288528503906	-0.16456836559456273	-1
1.3811867979777912	1.107248426500826	1.3490660255911668	-1
1.8225048741720398	0.6286492087442324	-0.5120586448541816	1
-2.015102010469298	-0.8022211239653212	-0.9306665797219532	-1
0.45691542084034603	0.8182172218716229	-1.2625650798832257	-1
-0.642702855547356	-1.172203585922831	1.5824828227736547	1
0.7754998148755667	0.27927540861828776	-1.7487353486949715	-1
0.6248970944839657	0.39215227363802996	0.9441342282339115	-1
-1.3196605294326194	0.18042773858305983	-0.2138533879063215	-1
-2.8659154197083403	-0.294361235882101	0.6785759632094164	-1
-1.2344448436826296	0.8473125769377937	-0.14351026157453187	-1
0.473358864480276	-0.8385647294707884	1.1983632723393682	-1
1.450632105159305	-0.001307547835741083	0.0010303026295725045	1
-0.9054567377052707	-0.5599707139226585	-1.5855737928997164	1
1.9524423938454942	-0.34363326484070883	-0.025663348002703895	1
-0.8348584941192329	1.0065693181194593	0.03197397603101467	1
-0.4387064071149932	-1.2940019471609698	-0.21686569953109636	1
-2.134289760548398	0.1033689595450381	0.7204720942784855	-1
-1.145525406483088	0.07951643491644317	-2.188070393923597	1
0.8194881345366952	-0.10884573414004205	1.1154440723850088	-1
-0.6451335353472505	0.10845960079342941	-0.024140432927328006	-1
-2.0084304971921614	-0.3122420476609069	-0.6320431538850244	-1
-2.379861388832936	0.24202376760394664	0.10129135435655315	-1
-2.0150056487668886	0.03146338659372979	-0.06896264883111747	-1
-1.8503955269131165	-0.23537286052178152	-0.0006115413019249318	-1
1.1256351986672468	0.49259003090850967	0.35088619896126216	1
-1.1136782671278136	-1.6223912775619962	0.49002635216503826	1
-1.1201502194153976	-0.6956858530824815	0.173967209787174	-1
-0.6790590344421911	-1.9345873843147432	0.11327473067570988	1
0.27294021273968294	0.8976012032486431	-0.6804928157138778	-1
-0.5328237772211958	-0.4964873761213395	1.2864240062254815	1
0.7796273451570932	-1.5392047026634565	1.589157100041498	-1
-0.5518124030377587	-2.0718929136169715	0.7879597566531591	1
1.2978211120923158	0.12670525544794084	-0.7405797584920091	1
-1.8955030034095977	0.12068520235438691	0.3543825245988527	-1
-0.9772235757256296	0.4322349359180357	0.34452427950500947	-1
-2.2659736067613787	-0.10350442964647011	-0.10831492629840798	-1
1.5646404531496394	-0.01333156679864103	0.11338215616091148	1
-0.3789731951993681	-0.12546803615499943	-1.4342070085546512	1
0.6151744256436813	0.5071800065143268	1.9866100617757383	-1
-1.0713387922750874	1.045360186358269	-2.3298515406779465	1
1.9431280414181356	-0.04828098939178365	-0.4431798946869148	1
1.3149542690359413	-0.5116219186330946	0.5636791657085737	1
0.5771423328589582	-0.15565690200531387	0.9458180644021676	-1
1.7574913847269755	-0.06727574791207498	-0.04262728611902912	1
-1.403502806691861	0.6958619594230862	0.3126699167727647	-1
1.5486276635710023	-0.26484384794791865	0.8656798953957223	1
1.3402226287356307	0.10037805506953566	0.08737331603564685	1
2.1257997758570797	-0.3393074649720831	0.11065999259253965	1
2.4557257855634496	0.08404665533114725	0.03608301880284092	1
0.3767593985789134	-0.3496879077908901	0.9926595440242608	-1
-1.0917949897800632	-0.2272068817195478	-0.09433532471287659	-1
-1.4702194877120958	0.007568248186849118	0.17220188414790094	-1
1.5497172098930265	0.33411873528112335	0.7652521975647019	1
1.8876214805291154	-0.2684546153278797	-0.24507858704351326	1
-1.5884389168720554	0.25981517118764424	0.19256163693509679	-1
2.066538011410714	-0.39752147425326956	0.04774962325130838	1
0.8212698833651841	1.5058204416368486	-0.12762985328152143	-1
-0.9946591800066076	-0.08445942710521981	-2.7234118714907143	1
-1.8883259633186134	0.06684172119792373	-0.7355632616903056	-1
-1.0671405664380615	-0.2291769248038525	-0.062047547922433756	-1
0.3966941247105569	0.7164272695554292	0.663051568993875	-1
-1.2041779655038827	0.5744835884482405	0.08782642219488376	-1
2.0726171274085763	-0.7525415772724012	-0.22652739313483586	1
0.43062798164812766	-1.385826104444872	0.15309749138488316	-1
-1.702101030982284	0.00102877296939756	0.2801113756650632	-1
1.128628171100415	-0.3991702717636012	0.30871669275036256	1
-0.8377297606600047	0.8360835564818494	-2.116196185412803	1
0.9291612821138145	1.592983276204358	-0.6437108752563203	-1
1.3387308611529	0.41375239381251633	-0.37793404978805706	1
2.2679801445631513	-0.7693790430722587	0.7141159218731041	1
0.47282168640576433	-0.2709928515872298	1.3263196488238003	-1
1.3562668958494069	0.33103742341050507	-0.2931805108588196	1
-0.2581513232197818	-0.652364775506586	0.5734568480120145	1
1.8556428448439695	-0.13166288469910445	0.29435795206502524	1
-1.0945658121427007	-0.2944562847702691	-0.12621001524320236	-1
0.41389208202705235	-0.33471237295535616	1.587376688053164	-1
-0.9562666053277553	-0.8031925453487448	0.7681108526367395	1
0.3719230302797677	0.6788457741311715	0.23682892228610936	-1
1.1603984920719657	0.04784620837332543	-0.039866997475635345	1
-2.343758078009699	-0.4011269501443791	-0.27787124409548025	-1
1.0222371859492845	0.09767672551702382	-0.28728357660287335	1
-1.0464205701410705	1.5629651048480917	1.6302917967766442	1
1.5705505366370018	0.32062133243072155	0.2545849904248773	1
-0.6861199181484959	-0.18702302583330932	1.125877796203842	1
-0.6257482757082816	-1.9867359805315392	-0.2843363688095032	1
-0.46247333021349024	0.19077801257751092	1.9205961659529356	1
1.2827941544716492	0.022781555846709434	2.160962176329927	-1
0.6030111737157468	-0.47804309658497646	-1.1400868882561779	-1
-2.72834915829672	0.6934727850387712	-0.3623078167515886	-1
-0.8130572111974911	-1.0003439009412478	-0.3114334623782039	1
-1.2099703707679084	0.5431259657250771	-2.136338733537345	1
-1.383308874439268	1.1506570470588238	-1.5880178047991977	1
-0.4971863181882659	0.33653759703392216	1.7330792222686857	1
-1.6919207360892736	-1.7284875872203493	-1.286171162194364	1
-0.2932978500895826	1.3405411598757282	0.08233819929287706	1
0.7904666148201613	0.8711627510955776	-0.9619491696667005	-1
0.46736532124592867	0.8909878770809097	-0.7248980792984643	-1
-1.8438076620690689	-0.6205170738376338	-0.34716294685454585	-1
-2.9957226860224218	-0.5332762742638435	-0.2090038295276672	-1
-0.5303855620859999	-0.15853091542937414	-1.1258155144679627	1
0.6985433800760549	-0.2678956230935689	0.12732981717381095	1
-0.3119503657045028	-1.136428399677652	0.16016325391640396	1
0.4709977138303873	0.46245588543690774	-0.3738566337715314	-1
1.0423272170980258	-0.4670030314766245	-1.6445686416581982	-1
1.2359255324663847	-0.8068708113698722	0.30510354543815565	1
-1.507331517729357	-1.2442865856546466	1.0149127898683405	1
-0.8413809216665874	-2.252268699532252	0.051738377935254154	1
0.30852389695070737	-1.1657867710472816	0.0007934192033560383	-1
-0.553883180973166	0.3110519226494719	1.1724795278842821	1
-2.8224199138263963	0.49211053437691316	-1.2162293403037916	-1
1.89960795494338	-0.4315650137520936	-0.09339265212710651	1
1.8621918819253853	-0.4894732697972659	2.2384683233224103	-1
0.9536355299264522	3.050586165073155	2.300977045385342	-1
-1.2206343266876118	-1.7821789897097469	-0.5715702987030776	1
-0.5368203095196316	0.33928104042459245	-1.0125522273461482	1
-1.6441613393016283	-0.14501701279055834	0.0064360152261517456	-1
2.192617764686377	-0.37729070059769176	-0.3036068906467963	1
0.527720193220555	-0.5619564810718164	2.8405534415978155	-1
-0.6062320438650874	0.7471246046334084	1.182104091262179	1
-0.32544303866668556	-1.4718445844974866	0.5908475459157364	1
0.8855243127175625	1.8137145239507397	-0.7334065318970291	-1
-0.423173167328438	-1.4242681853958505	-0.5146520109510352	1
1.713227357516078	0.7138549756136038	-0.2909341790475771	1
0.4258897433635289	0.7311980040350706	0.11098035362522346	-1
-1.029009218767835	1.128789920449572	0.5528957134945434	1
2.401554430945081	0.060916653623702646	0.4135733786355813	1
-0.7826497426701697	-1.7457643655635586	-0.07417116639912939	1
-0.9956567264229199	-0.18602344885452546	0.11542003802851775	-1
-1.2976396729691517	-0.3635540589344098	-0.06814901782444303	-1
0.6932594121457696	0.5903937969613415	1.2398725803289425	-1
1.2492106993840038	-0.9360403393384312	-1.2684742289469417	-1
1.5055184114525926	0.061616488656820304	-0.1366782369977527	1
0.5016113991467211	-0.3236669548867068	-1.3197669754331343	-1
-0.2872404193759121	-0.9170864598924743	1.0357212697047358	1
1.2590131648242766	-0.21487737246484206	-0.46837022549460744	1
1.2787726530988748	0.08731536735900003	-1.8951275228819444	-1
1.265930074780754	-0.10789853446460157	1.729190693387507	-1
-0.48652113035860883	1.8550485614111576	1.0972971799436058	1
0.8844706082342157	0.06565591617294497	-1.6493097272969182	-1
2.3918800506901543	-0.013877942959355497	-0.7090163261341439	1
2.329313810693314	-0.07983449679124249	-0.5174779129161907	1
0.37077737760472074	1.0148661177574911	-1.602421962679439	-1
1.7984465465743829	0.2755378462598989	0.44588706587815197	1
0.5567001833789922	1.1830547903135997	0.4566663474434764	-1
-2.5380205996261043	-0.8332527528320264	-1.1283354221132453	-1
-1.0803147263718849	0.18901348820426092	0.05802109037803571	-1
0.426036955596075	-1.0320477071821044	-1.571261111440711	-1
-0.995954667877361	1.3692737270095725	-0.5409964190960431	1
1.0462271331707294	1.8748281493705325	-0.5056250878140026	-1
-0.4976849809262487	0.8124030149176854	-1.2742504000844168	1
-2.047609100168314	0.7288096842201844	0.9264289285203307	-1
-2.3928055436172975	-0.11175644203209337	0.6842994264995389	-1
-0.9762816477905236	0.21619978504753604	-2.2843926192647706	1
1.2095482540702551	-0.2568476938031311	-0.24380118705749504	1
2.138985853878554	-0.3530010763826188	0.765638418705912	1
-0.4061636447080405	2.073066415946523	-0.6650439962539418	1
-0.9562468309433619	0.26109334065259365	0.25138467806350406	-1
0.5077707449016292	-0.5716797725495507	0.7777024415096503	-1
1.7374963048726926	-0.1578551442521697	-0.443905377545398	1
-0.5222027754277028	0.2402149532441488	-1.315220699752695	1
-1.274164739773403	-0.16307738122535004	0.032763070198127464	-1
-0.8655165834053906	-1.1884676621934174	1.6253950508373265	1
1.3150992996108535	-0.23684451756155728	-0.20678156440018414	1
1.8622671016726333	-0.1384787343407274	0.293773759741331	1
1.8822202675060842	0.2750539529816582	0.8312839200605282	1
0.4594321843515954	-0.16979129092334183	-1.234102796789683	-1
0.5561957660773399	0.3352294523216626	0.9199337334134241	-1
1.005451664159964	2.0733946304941653	-0.1232165737778856	-1
-2.9583461057751808	0.5079789208644624	-0.3690928832616186	-1
0.8805621234082559	1.0861254590245284	-1.57133966388654	-1
1.2578720857689198	-0.10531121137788713	0.24852014609888468	1
-1.3207120577737088	0.03294260530351909	-0.30801719424454577	-1
0.4769247351830811	0.01460193483341369	0.08239941863747995	1
-0.814023813592907	-0.7623101411587725	0.5529068025976068	1
-1.3558360082723686	0.17239059836842963	-0.650320724674065	-1
1.0544616818510952	0.7632722552485709	2.545513880265134	-1
-0.48371297978165884	-1.196621949934806	-0.9932606586197757	1
1.3238700220179718	0.8272861461481125	-1.8593251362982828	-1
1.0509224896890192	-0.10834091880168695	1.0640868037452569	-1
-1.1372578955974062	0.45935691390591177	-1.9023799992877821	1
-1.232530487224121	1.805937808954119	0.7243572715094831	1
1.735027236582478	0.18174552435706415	0.07442125851831038	1
-1.097989279933646	-1.598870935273556	-0.22044767784107175	1
-0.40699017485170413	0.6297993080521884	0.40888004643977277	1
0.7680883185420269	2.8126622312950484	-0.5407965614787197	-1
1.5601999754614502	0.1598073324342013	-0.11432583391118636	1
-2.2151747102398893	0.22532336937468866	1.0800413490933998	-1
-0.3930760164393051	0.6236687670208183	-1.5030699005982497	1
-1.036355959201109	1.654473863564006	-0.7088716189724806	1
0.9123708000308028	-1.7750063423693274	-0.07915955838105833	-1
1.5907405187605381	-0.5306406899936821	0.00042141246931591184	1
0.3058501911111843	0.8021660427920445	0.6101784977406656	-1
0.49687876813883974	-1.9136516802733334	-0.8140261384361003	-1
1.067726352070186	1.1540766440296755	1.1658564963067162	-1
-1.6522331311682166	-2.205440025473221	1.2326835792235085	1
0.7265535023104673	0.7373854393808965	-1.6607305395056908	-1
-3.045159274941215	-0.9102031468953302	-0.39785133746117873	-1
1.0285459812946667	0.3942976598167627	-0.05600549324847535	1
-1.799153841059734	-0.09227798742769401	0.9044339095262006	-1
0.420747702431977	0.3659558841847411	0.7923573026555454	-1
0.9152977028806122	1.6432943979865144	-0.6376655066339953	-1
-3.7031306015210017	0.10360151196546166	0.022004021852639815	-1
0.6311613685616638	0.2645724355431181	2.0640381880333316	-1
2.5914846200225914	-0.6752275402815198	0.16237782296446684	1
-0.5988099806716133	-0.1895880050133828	2.7320604746002735	1
-1.825792614480756	-0.007773324906047381	0.134127773091797	-1
0.32625777821929847	1.9358194279507839	-0.41728520483774334	-1
-1.2632005228386263	-0.16498323438528076	-0.23659682684140085	-1
-1.3636260482820453	-0.16161542822198124	0.032045609911240634	-1
-0.686205104306842	1.2111075608229147	-0.22770693972036984	1
1.1209433203468895	1.6108394614216497	-1.8067666288362323	-1
1.5836466393359991	1.016483143417075	1.9472234882853083	-1
2.159322154382393	0.5856834924627381	0.6560158523133239	1
1.7348541816216843	0.6919722991391519	-0.47147658913584034	1
1.5696714451630351	-0.25131654255059693	0.34300548340099546	1
1.372758549444409	-0.3847219575162025	-0.1231083769295746	1
1.1979118440877392	0.3602432867277627	0.15314228914497263	1
0.2526121251047983	1.0434545673408968	-0.6280233780100328	-1
-0.4096319840598175	-0.8654151033609765	1.5668741958599683	1
-1.0949592292551131	-0.2884742566997045	-1.465024403209263	1
-3.6924386238278326	-0.5773194937600206	-0.35633551754446047	-1
1.152512334655789	-0.028242251797142917	0.21635147044683165	1
-1.38893047027901	0.3282739692277985	-1.6483594854745125	1
-0.4246170553344619	2.0301325826834486	0.7927602522411058	1
0.9328595642276467	1.0418252815385498	-0.369953714235307	-1
2.0475526788271523	0.41974437440970197	0.7744824263480694	1
-1.311305096443082	-0.46289656416768593	-0.5986565704280213	-1
0.9143978223599594	-0.32604581164738433	-0.23367927881323838	1
-1.8907689681201316	-0.17021023932043963	-0.4731024158044438	-1
1.1526779122061201	0.16432690837917172	0.045044784001173954	1
0.6781031995391755	0.7533374138948851	-0.9700622680001306	-1
-1.870649850728591	-0.38959478179398116	-0.10629536213002085	-1
0.43518183842647595	-0.5316019713624673	1.8156142700671194	-1
-1.347435374523147	0.33809848055145914	-0.5150818330699772	-1
-1.2654155210799514	0.38057518984050587	0.3542736165817886	-1
-1.395332456207034	0.00837409030617183	-0.29184525787951654	-1
-1.4629873045644721	-0.4374373719954246	0.14881188758377428	-1
-0.8403268196227991	-1.25069840912864	0.2516675610619382	1
0.9343962854130252	-0.3442367995693821	-1.8365899706528155	-1
0.5531876212499134	-0.2683565082557501	-1.3088731004484744	-1
-1.8648004972757524	0.2500762080178861	0.11307266537598722	-1
-1.0417587858102422	1.3161333200634309	-0.2773192946744507	1
-2.0037935739529487	0.9567969159556728	0.04203500357575333	-1
2.3877070976786725	0.36020634851894134	0.023918981092697147	1
-0.5307100441973882	-0.9966966623065237	0.5767111770233345	1
-1.1810927561066569	-0.10624786630442394	0.6479909981811408	-1
0.37052412781002303	1.2266023479891768	1.7543406168247486	-1
-1.0345715117535312	0.024555470807701534	0.5298319732763701	-1
-0.9850116246806551	-2.3159963336996907	0.6356811574286894	1
0.6756048224285981	-0.5499160670128743	-1.797352688330431	-1
-1.4887103043674055	-0.07116376858742222	-0.038052976098532185	-1
-0.4505563940294917	-0.7689950045444905	0.0026038555211167387	1
-0.6639590643627997	0.7077484546637535	-0.9289032061866451	1
1.1053252425082447	-0.21519481875461388	0.0025184499882265673	1
-2.0926593440812082	-0.7640920963376274	-0.45882222175138543	-1
-1.0470911176882531	1.3845352764523595	-1.1856516754616755	1
-1.8918675274942096	-0.20257788825153536	0.11568434731879287	-1
0.9301400534916189	0.8566785392371783	1.8497347330713894	-1
-1.172783142695794	0.1203815750484537	-0.1516661873459616	-1
0.27536962053390257	-0.812955879010964	1.1034726529845875	-1
0.8359511562270951	1.360872737873601	1.194589923237065	-1
0.46733695616745563	-0.8089245904036307	0.8424024142705839	-1
0.9778440193594868	-0.008809396181505853	0.2034433586467811	1
0.5307923526872335	0.7528771105822752	-1.1883460749166312	-1
0.6073707343601404	-2.0666860976995465	0.4907964001551606	-1
-0.3254007051379996	-0.2081630432959309	1.5987608392022619	1
0.43321179754203754	-1.4187894599923714	-0.5703798689250966	-1
1.88861928302389	-0.74858775933264	2.111953217669996	-1
-1.2645629156060747	0.7729285373974147	-0.24203732311089052	-1
1.7359190921556373	-0.41298818260106973	0.5038576554077984	1
0.8368368968740015	-0.2595456895900831	0.25643565840316734	1
1.516526818347205	0.7110193948473886	0.30455483858175386	1
0.58563757872558	2.0811725446386893	-1.4958970092486426	-1
1.9488590684077047	-0.36572880910598315	0.03205012726689834	1
-1.4067446607195293	-1.5554110235947678	1.7917870451598628	1
1.58675038160615	0.36180789585795087	0.10731934207349357	1
-2.0404263742222706	0.23654127826430688	-0.09505101140000007	-1
-0.6653659512507926	0.3933465659612001	0.9333126900278668	1
-1.5456258110427021	-0.9480079331466552	0.3805473360449212	-1
0.6248441183856897	0.06510297453920516	1.0801147165919631	-1
1.0885438347246035	0.17003856687197413	-0.016286394554183563	1
2.4528884892915173	-0.5151665119168117	0.27466213667456957	1
-0.6209274822670816	1.5059745932345106	-0.284998400745578	1
0.19759112103692755	0.1241330130770062	0.9528387412286782	-1
-0.6179498564921114	1.0696929669416655	1.3577724133482914	1
0.9251635703664937	-0.24412044218475787	-0.23635072068673668	1
-0.738950302507469	0.13380749279220802	-1.5909289639443633	1
-0.6969573512466547	-2.0611184961032287	0.16748575803017818	1
-0.4485812771668095	-0.04136433361814249	-1.0414587572275598	1
-1.2693397885594224	-0.0030010050015318425	1.9993778562610016	1
2.789492363851608	0.4509851031557034	-0.2942473262212841	1
0.5565989221299636	1.4822440872716314	-1.3502970180253693	-1
0.3740910392641493	-0.9408848827981935	-0.3789261248094757	-1
1.0263358573099095	-0.1611884625081602	-0.006250046823575616	1
-1.9304935127904672	0.391019855941986	-0.08539888810741283	-1
-0.6010767696349749	-2.4868551817969826	-0.13275445187794863	1
-0.15745661498853153	1.2337323860528338	0.35449821431799045	1
0.8817807015300776	-1.1301295346285074	-0.5684683908069368	-1
-0.9116888688655648	0.14718248777064	1.5551649036674118	1
-0.8636686748054019	-0.189436196175683	-0.19048262241772643	-1
-0.9920927286140002	1.4196651972252425	-0.728884749712044	1
-2.122046591654834	-0.2098323654136005	-0.5770391683051735	-1
0.6119720938428571	-1.6836971248360642	-1.7845696452615003	-1
1.076648716453364	-0.5929106617035987	1.3984552457661268	-1
0.7557672148506536	-1.8241286361604319	2.1022127872775864	-1
2.215270289787188	0.5781417363208673	0.28047746456083006	1
-0.5872275930094254	-0.5322369337055919	-1.6950541708745175	1
-1.4706995126072164	0.22443423233629273	0.002814637506959722	-1
-0.7628970260017021	-0.5308686407320936	-1.274491149895707	1
-1.3268476101079767	-1.4692324483414387	-1.0397510734158248	1
0.4471019516624483	0.43877954918017914	0.07567354359309246	-1
0.27344406317958353	-1.5891827629698725	0.9911069878391271	-1
-0.6977661545924132	0.4561049889535954	2.0664541093262856	1
-0.7979453863281901	-1.8711897429997877	-0.13929675244497083	1
-2.066526902056034	-0.31074323376475693	-0.7570602440206329	-1
0.7640691827393503	-1.0534049594847263	-0.9072721945453458	-1
-0.8634310721570673	0.49853564747757784	-1.13744542895514	1
1.6530722499608457	-0.5651894437173292	0.23485084235928866	1
0.6797395050662534	0.8741228187477926	-0.23011894939665375	-1
0.7053785228616641	2.1966385613446007	-0.007721205729789076	-1
-2.05160843024494	0.3204483825317004	-0.25425831668293447	-1
-0.7363505797129033	0.4092676076868042	-0.9482131816615511	1
-0.8043486787700078	0.7444413988914412	-1.8677308103405292	1
2.656773636726792	-0.9193714678036251	0.5268267166042693	1
1.9730899717293946	0.18897942940797596	-0.738452574801049	1
0.41773209800256794	0.02269755856729798	-1.2777312269998284	-1
-1.4944102334331928	0.058511408282093114	0.16128801094488907	-1
1.397504023627744	-0.09202382644541898	0.4628833271033683	1
1.905624348186313	-0.8474646809158527	0.14553762907529447	1
-1.688023121573664	-0.4921960920445118	-0.30046349806844297	-1
1.2349547412196518	0.3944937683872288	0.1549732408014105	1
0.5857402197933304	1.1983503540070912	0.2521059875279256	-1
0.6684633697497695	-2.5390032411723493	-0.41434793360767935	-1
1.035437277673577	1.1446685521956095	-1.4442685006396496	-1
2.8545635035674812	0.9361559045435295	-0.48477608042488307	1
1.6010816384975852	0.07369710269152445	0.7518196268734632	1
0.35151635644933155	-0.528628349192446	-0.28976571586455496	-1
-1.0078556943937818	-0.030037605126166912	0.5540032345629096	-1
-0.7463372295026288	-1.7279528230136494	-0.1102292964859343	1
-1.221941916522903	1.7389769301087707	-0.9028318290947948	1
-1.9724817527970822	-0.6657365812816471	0.7605587760260668	-1
1.0079612972097707	-1.9006041047665285	-0.03502658675476214	-1
2.3196476407260587	-0.012714502639975875	-0.5467085816252489	1
-0.23320819480726476	-0.6691889139049867	-0.38977790819278324	1
1.090827027889408	1.4751447664786812	-1.3359864988113817	-1
-1.596743360136954	1.8793744973061537	-0.03496006613769367	1
0.33316139703927616	-1.4308612296926368	-0.8712455661748438	-1
-0.7945891462776793	1.1560101654016248	2.040129213798147	1
0.8122066628361202	1.6938734690188302	-0.10492735627337334	-1
0.6604329852489197	-1.2468751962228957	-0.977730184779762	-1
-0.4250975835612531	-0.4764778599879793	-0.2705812824593582	1
2.230653852745465	-0.5859218353083312	-0.4296518368591926	1
1.4036421609634995	0.0667012008035687	-0.5616500405390066	1
-0.3586851535887521	-0.16564890589542905	0.855432208119861	1
-1.7753140080415983	-0.24239803021035877	0.07483155669583148	-1
-1.2438425090781935	-1.2817121325107244	1.0331746935625752	1
1.4629521529498137	0.5430880770869646	0.1587053082272004	1
2.633024629359648	-0.8084438674635144	-0.3084008102385175	1
-1.2927301554661714	0.6742763277715283	0.16616886274467935	-1
-1.1212711043156764	0.011015833687175068	-1.517291998840271	1
1.1289580880965377	0.15571046295930757	0.2371933570125928	1
2.7626138813758114	0.04077559158911891	0.14409412798560298	1
-0.6847445699333998	1.1663950377847019	-0.2879030324593011	1
0.6973649819349172	0.24600888051782177	-2.1210539052886985	-1
-0.5050888334043908	1.313288855429263	0.6202369189687267	1
-0.3407912923450442	0.08201357892235672	-0.8271437732544265	1
-1.1956272327615558	1.450550455497219	0.6787031507042737	1
-1.963207122699647	-0.753029778700632	-0.4597249505647308	-1
-0.5091753543784131	0.3137747016357264	1.5532083254620042	1
-1.7588627011476632	0.29447127628654285	-0.01397620685224827	-1
0.578087368999041	0.36892593573875465	-0.6345107022125099	-1
-0.24146629385484292	1.1951637557423613	-0.5351349399606113	1
2.5812441792328045	-0.6951744709035275	0.16053411994341368	1
0.9044830136416047	-2.2436823942719646	-0.024530341716936476	-1
1.066249978091428	0.06123607322872557	-0.053225835285122515	1
0.7783872318368056	0.9123365194443771	0.4512712242144101	-1
-2.077809193468153	0.1697945176018358	0.346122261724771	-1
-2.4169136888188465	-0.5259030085546302	-0.11998853389882838	-1
0.8805255667063439	0.3103117690005048	1.9701192238467962	-1
-2.0735676000105396	0.629694014091831	-0.8342329877237232	-1
-0.3236789940025934	0.1318731258219908	-0.5242721481997009	1
0.5879790607554835	0.79598427721714	-0.421881264446513	-1
-1.6289226339716074	0.024469666518148466	0.27353426903666905	-1
-2.5333390229723016	-0.40817814034577404	0.975153013439904	-1
0.7834853497303954	1.648644788886973	-1.5303033041042324	-1
-0.7711369796787972	-0.34400545715481623	-1.975291015875409	1
0.14047577306592948	-0.08548724086688143	1.344049209419068	-1
-0.36968382865236626	-0.17065416798486405	-1.5278048931269317	1
0.3660995841894995	0.20809913118738593	1.1077253807253615	-1
1.4976555066051285	0.04767851321229282	-2.282131654929289	-1
-1.4474059338910479	-0.40867195518432564	0.26643807424939325	-1
1.8893781360305035	-0.32264180455334524	-0.15596582752478905	1
-0.6622212109239523	-0.8240538407916316	-0.873128944267032	1
0.29101405749816417	-1.4409961964211144	-0.6619677095330267	-1
0.5530655450521781	-1.2180734912897637	1.448258380712009	-1
0.5658936863700561	-1.272503695343481	1.296252577962635	-1
0.33237848796438374	0.926716693116963	-1.7729452973104132	-1
-2.0147250779328405	0.17124539818241472	-0.33425821045187865	-1
-0.7001311169997557	1.8866998679557103	-0.7053663433793331	1
0.5498707107927091	-0.2812210376159478	-0.7247871805259098	-1
-0.5524432638668183	0.9702490575413316	0.8905016401707272	1
-0.5066513049758393	0.6471932584185631	-1.1050930765029874	1
1.23846954528939	0.18031691383940254	-0.07290289591822882	1
-0.4289561373550954	-0.9336708193739041	-0.9846195058931715	1
-3.0260475287545137	0.4548967771229244	0.722788697730501	-1
2.2085318105869898	-0.3252573260795859	0.609073710862126	1
0.5551279053418184	1.2804737573538842	-0.06510525428367078	-1
