0.6645437275830957	0.8128065408274168	-0.3860173560918178	-1
-0.9174883637709844	-0.3261205738693192	-0.5129637902722369	-1
0.798208895248182	-1.0797371004265004	-1.5063272757933401	1
-0.7667692132839665	-0.9885857228684272	-0.312595033342298	-1
-0.3820617669697399	0.8559063999068638	1.2797957333822554	-1
-1.2476498427829297	-1.278558127330192	1.6857108498851656	1
0.31312941173968006	1.0577123896602345	-1.1412896954800555	-1
0.710515601896422	-0.4579228937495421	1.035241361927535	-1
2.354831948652018	0.7615836898565608	-0.7530660751274183	-1
0.48949404949438907	-0.5648632348425008	0.5006812996994877	-1
-0.4227607973479633	0.6021468330004505	-1.3842576230748058	1
0.4568859807454187	1.3204780536036012	-0.5872728378341864	-1
-1.218878647528962	0.7552024455171535	-0.9987907037793662	1
2.3724192738291694	1.7737958280622736	1.9051800022832073	1
-0.8644738236016942	1.0506168287626818	-0.9582519319174457	1
-0.9771751903578507	0.7977782135352635	-1.8589071059245565	1
-0.9966163518118871	1.1952465579289853	1.534055174381017	-1
0.8460335760333765	1.3806784044483054	0.9948945187401608	1
-1.565132973207948	1.360146873958388	1.4432755970044182	-1
-0.6038833503509684	0.46215494646098776	0.6205867777478571	-1
-0.48178528297021056	0.3982675936362775	-0.3413261772007202	1
-3.092362111963661	0.7147827931539188	1.5506498438486482	-1
0.738183933959242	-0.729644827282808	-2.4366034215030226	1
0.7698142788821418	0.4988099506396535	0.541008203356954	1
-0.4623701445074807	-0.44376486922118635	-0.8068443568772031	-1
-1.5492071479997485	0.698255365395251	-1.1289782455963548	1
-0.5809998735083982	-0.4668421600187732	-1.0261657676656637	-1
-1.888583739060315	0.7039291871992756	-0.9911256352151533	1
-0.6502628191159264	-0.8634483673251918	-0.2651332164304983	-1
-0.47020205178581986	1.1123649271155764	1.1872194280629065	-1
2.049281988869937	-1.2073827066069343	-1.5319793297677458	1
-0.965570762917867	-1.982342576791818	1.3855316437763099	1
0.4109298975196196	0.5667574154843604	0.7392017111943627	1
0.9482952023537936	-0.4484601477348735	-0.4717299176754914	1
-2.27391203409569	0.3744718555547207	1.811792344588685	-1
-0.501937687257706	-0.7225011746432041	-0.9737289425306719	-1
-0.8050491010290586	0.93794603781879	0.6605463233397251	-1
1.4726199375112252	1.267474015786743	0.8185770925083752	1
-0.24085272447028727	0.5285012249356015	-0.6811334153005475	1
-1.251295168225104	1.0999338056171308	-1.171016044658191	1
0.7091994887839038	-0.8711075999788722	-0.7480540623147324	1
-1.120315166644116	1.090881595909092	-0.5008766526603037	1
-0.7143772959914171	0.15333740487439024	0.5048386560089021	-1
0.9435179078552575	1.0120312374049294	1.4453335645056047	1
-1.1667186731308474	0.9334490722279496	1.3720675377050178	-1
0.7118561819024576	-0.3624962636057913	1.14896306163211	-1
-1.5636020322383721	0.9144344141624092	2.2707077733450225	-1
-1.0318096641712469	0.453013395894262	-1.181772001302149	1
1.8614217504920045	-0.5988522703632329	1.0836601035044653	-1
-1.676732884236736	0.6973867203442083	0.9078040547728524	-1
0.8384600973208614	0.9540319373933104	2.0016913885560794	1
-0.630850600916468	1.1922345051499865	0.3364144511884091	-1
-1.0977235511171402	-1.0298396373964898	0.6991043296655203	1
-0.7789606885000288	1.0990867610318584	-0.6666405865439516	1
1.1399929418197816	0.46850772143709474	-0.6896367618750638	-1
2.3731391345090542	1.8889905741053283	-1.4751898242704835	-1
-1.280283394301738	1.0950543963720525	-1.2101431182293332	1
-1.1336065280080767	-0.34733825982165634	-0.6095143879550748	-1
1.2225046468366294	-0.7774942025815987	-0.6091641981446009	1
0.6262016097683365	-0.2778633659240407	-0.503241345824088	1
-1.6894553985500567	-1.2208622606580595	-1.2389546032969903	-1
1.6176277872776226	1.9370783332569854	0.6749784659713678	1
0.4588846417446932	0.9581138813784374	-0.7772430868708272	-1
-0.6502100084581999	0.2263036783561838	0.47304142264477544	-1
0.7608176670987767	-0.8264877798372633	-0.8335429298929532	1
-0.37136026273136186	0.558324137467915	-0.6575059961220383	1
0.3530820208125578	-0.3256430374231953	0.2032273941611302	-1
-0.9345777003747368	1.4686182447050566	0.9854656593752413	-1
-1.0935669556764203	2.262600570187986	1.0675800896850813	-1
-1.4433304166708503	-0.3530171241095692	-1.250246254543022	-1
-1.2964011914970401	0.8137242158986289	-1.2621103816994335	1
1.940544338667881	-1.262274876000424	-0.5889927700410107	1
-0.6144439323147344	0.6018061580903273	1.1149032829443655	-1
-1.3218204224722148	0.43919522399180383	-0.940615755436808	1
-1.1759411167693408	1.7353257781224927	0.5947466844684304	-1
0.6865047509835728	2.0733646575788742	0.3354018322421599	1
0.961225961959022	0.9388979737069807	1.3144378879845324	1
0.8591537469558235	1.349186643040099	0.047867725243264526	1
0.773764330442508	1.2095835979850607	1.1082166531891664	1
0.8017358790021915	1.051721029960882	1.1077419180041195	1
1.2070003093567463	1.4698875605667538	0.8588002924782057	1
1.1778081536187681	1.2349680200771702	1.7639458853824994	1
-1.0120751605643274	1.3743119704655884	0.5635301439493171	-1
-1.629854986569174	-1.6629190745579117	-1.160167162586632	-1
-0.5429160626799593	-0.9416259987294068	-0.5675821744782561	-1
-1.2424729418375098	1.807749036773338	-1.0121690734349005	1
1.0940939838570651	0.8731212443566472	-0.866480063985553	-1
-1.6746311553632673	-0.3435021636326858	-0.8819545413135901	-1
0.96743497653708	-0.913719142224816	-1.2096541922488386	1
-1.0701429862232734	-0.7387739406457309	-0.779420563262308	-1
0.606166626949886	-0.3142841025998182	0.581981847403098	-1
-0.26973382035216525	0.9756230596948158	0.6648406015053605	-1
0.16086665501881794	0.38304709192080927	0.404769846751653	1
-0.8835392925590725	0.4471935802817659	0.2216109008772965	-1
0.8534829626947135	-0.952057237085631	0.6783684778121857	-1
0.6526474710289566	1.1761945681995682	1.328945983900374	1
0.917761653915648	-0.9000019949040299	-1.4343091060753708	1
-1.089467085527191	-0.9716369176607694	-0.9121367184804005	-1
1.2352555690069225	1.0358531866964849	-0.7339609321787616	-1
-0.3327498712649754	-0.816710159441414	0.9723114214660417	1
0.9134390848230449	1.4418144046975785	0.812949751091617	1
0.9230983224085035	-0.5254119707931596	-2.22304815124684	1
-0.3505763554978032	-1.4714475308697548	-1.348774145662101	-1
0.5077340666380538	0.6334253786016713	-0.8498228560500964	-1
-0.8333834273724143	1.2936492988937998	-0.9165060837253609	1
0.6431527799808343	0.79434609166006	-1.1576923073354817	-1
-1.105043011664916	0.5483779809249147	-0.9289728375536024	1
-0.5618358528224923	-0.7614245129568705	-0.6081073564367601	-1
0.9354580478696898	-1.6608505700119949	-1.290332820085736	1
-1.0245443150351254	0.8619111306716958	1.4649600544951096	-1
-0.23894685326121246	-1.7408957166203398	-0.23248739095134724	-1
-1.3118646757004708	-1.3901276497652681	1.7094667223730076	1
0.20747498108875095	-0.7389325445742547	1.4271390589697226	-1
1.1271050710494477	-2.028256982282183	-1.4867421850697162	1
1.2306988903448015	2.0716428705004453	1.3804802662265416	1
1.0907956219369284	1.264948347901516	-0.8074079140842788	-1
-2.164481184453317	0.7362147832934975	-1.3925410491230932	1
-0.9362208239678513	-0.5485811253957252	-0.6730704304096504	-1
1.0384696338904165	-1.6276346146243705	1.0728779182434731	-1
-1.0476775707895998	1.1310040570311937	0.2401351017920865	-1
0.7519690684726615	0.4562619121807956	-0.529613188934636	-1
-2.289735207334412	1.011719750510665	-0.8434704062959496	1
1.0461460010019406	0.5677927838135363	-1.426067844352409	-1
0.45477162260008686	1.1088534612486827	-0.9800954383243129	-1
-1.9223284384872543	-1.2987249906763012	-0.7855544171801828	-1
0.5572568475041204	0.4441643372906932	-0.740294699245572	-1
-0.13655773615387817	0.623739743429485	0.23371701391150987	-1
-1.1373114918636626	-1.2802318583335446	-1.6546344092307697	-1
-0.8884391982963534	-0.7485952949004973	0.747808463853412	1
-1.8601856083958836	0.9812874859473756	0.72041890251562	-1
-0.4831917399656699	-0.2510604449041793	1.1098685128047827	1
1.0235239225489503	-0.481740394815661	1.834345818236242	-1
-1.4459240644305682	-0.5284032067763591	-1.1359813880006722	-1
-1.413568841146196	1.4815941738994909	0.9358541142718515	-1
-1.6013695484891883	-1.4168604015921464	1.2761989697666563	1
0.8967603120565002	-0.4024912094574532	-1.5417843843031172	1
0.9077238850871687	1.3835725506661487	-1.8158495207088547	-1
0.1311150361519372	1.0212894431402566	0.5787287089196639	1
0.7751488758814267	-0.4677581900271534	0.6033988868909251	-1
1.1411120678919187	-0.854053175021768	-1.5122694574472317	1
-0.8055551011951829	-0.23976787663149715	0.511006465414102	1
-0.7153731357605113	0.5818147301568138	0.7705287047498223	-1
-1.0973028053169305	-0.27138723661074055	-1.0303292958085302	-1
1.289568468031478	-1.3631969287423769	1.2741903771680365	-1
-0.9989060261522609	-1.378569020830596	-0.8781898934316689	-1
1.2936196847313768	-0.6114725333828208	-0.905002571963008	1
-0.7700224415296727	0.8818344181393013	0.8095746264719766	-1
-1.6746580323546423	-0.6979151016613039	-0.28738570257920476	-1
0.47972989399808497	-0.6170968529221712	0.5822434778419353	-1
-1.280233601251729	0.4945570707664644	-0.9437843118347162	1
1.4338168659570036	-1.0660221063504314	1.683274890593372	-1
-1.1236759009217792	0.5901125090098366	-0.6106794392928908	1
1.8356972670810354	-1.6552850898573457	1.7170579804918207	-1
-0.6385745683745756	-0.8109734214862834	-0.9251158237442674	-1
-1.5319239422054838	-2.1329760336285744	1.4608183881022796	1
-1.0857059775301054	0.7166530799418984	0.9352633742416506	-1
-0.7596578333819214	0.7099916786482473	-0.7504957845407543	1
0.8616809087217663	0.9495515520039977	1.1424505797033209	1
0.7693573474651623	-1.0754443459505771	1.0274574031289316	-1
0.569622019405512	-0.925119532970645	0.6935622751989533	-1
0.6906243285975531	1.1877871473446664	-0.9385467801113032	-1
-1.6171863816191845	1.7311942798982434	-1.292170926231369	1
1.101629536555591	-0.991346481327441	1.6051156104376731	-1
-0.2447772011024347	0.598533804166353	0.49941704808883974	-1
-1.2718676208608324	1.723720146602246	0.6893395357365559	-1
-0.8134575536610564	0.6395421083073941	-0.5376013140543056	1
-1.9689433793662012	1.3172256383012333	-1.330017299438241	1
-1.3005085459397563	-1.6478574183113133	1.212111207174937	1
-0.8358532304974502	-1.3588624532885336	-0.851777441731139	-1
-0.384813177036548	-0.7227441013351271	0.35376532372259206	1
0.7259782066063603	-1.1840284928010705	1.4889823531203135	-1
0.8157167829005973	0.2671361999515187	-0.7171572602748633	-1
0.7875993115886023	-0.7637674833014448	-1.2101534317070575	1
-1.072705492652165	-0.2186382646992899	-0.4543687006231012	-1
1.235349407035168	0.4722362107080943	-0.4970754135859669	-1
-1.262171949378325	-0.7015793611722532	0.7069795538928076	1
-1.0782647602165896	-0.7252910848062937	-0.7710057143265829	-1
1.2631885176974804	-0.18343168952542493	0.8014969563353553	-1
1.6193213873368923	-0.8058008724385476	0.991056720030792	-1
-1.1108175125642359	1.4721792425906821	-0.8333348387627284	1
1.116438911035912	-1.0341510863747687	1.2875191399425396	-1
1.1475830518862498	1.8902287707435166	2.205483956014859	1
0.5559067468340051	1.1600232686585124	0.7325924731065732	1
-1.857503380062767	0.7026052748674106	0.568116065740429	-1
-1.133641828251642	-0.7945035587022402	1.449784165924158	1
0.45389712758906103	0.927022969958541	-1.2009515481514175	-1
-0.20166635815428655	0.6416723288812183	-0.6896684556786651	1
-0.5055958507818074	-0.8914907338084165	-0.6327151238707063	-1
1.1313780028876737	0.7298614868775649	1.2725147681797147	1
0.2655246205108426	0.7140920519312935	0.6275273967042924	1
0.29806463080033285	-0.6331552849362363	0.772330094108182	-1
-0.9575820610760504	-0.6579386624102206	1.1056617851845425	1
-1.054793958831645	-1.1549341244634437	-0.4954751236344473	-1
-0.9154660969401157	-1.02562702189604	-0.7986430251531521	-1
0.8645798581213695	-0.6978106555960255	-0.9116710292274365	1
0.23757947671593596	-0.4331873695051529	1.2668470614075062	-1
0.22427378077383053	-0.9731195527442357	-0.9670457413639341	1
-0.6840134012924372	-0.7323516573133463	0.7848602640337474	1
-1.251085310912492	0.9575613052028156	-1.6278245040131372	1
1.0750948938863887	-0.941997348543544	1.3517430852031902	-1
0.6887216965269278	-1.5677140533895195	0.7869629076935551	-1
-1.200845529278216	-1.2621447599236413	-1.4587594122631127	-1
0.4669186203040516	0.8666660014611387	-1.3096020967499193	-1
0.9385400770178376	-0.7966814658214069	1.0682760799182074	-1
-1.9338514528040314	1.0637511619689934	1.345677115062442	-1
1.8412220676200306	-2.4374350080764913	1.2798539037786476	-1
-0.886232965543989	1.451386183054231	-1.3079368488492706	1
0.9173096391924217	-0.5392279445092608	-1.8567896730534263	1
0.7611145097852599	1.1683649720173301	-0.7845497422008303	-1
0.6743470768555686	1.1353644609603901	-0.938981602944728	-1
0.8230244822229029	-0.9940073038772281	1.3274723233901713	-1
1.876592102481288	1.9089890335644761	-0.8208096882900988	-1
-0.7253905142641253	-1.858232437350205	-0.987861742524869	-1
0.5344085601751661	0.8160598671156744	-0.8852368296270513	-1
-1.1385513519850898	-1.1383855477684977	0.5290966339226507	1
-0.3901781180290527	-0.2357868325458401	0.6598108208845579	1
-0.9116185914392837	-0.9020974186280191	-0.49915747554383627	-1
1.6396427167419838	1.985454431608218	3.154148193917184	1
-0.5102176436967448	-2.0660141546359228	-0.6528483844908455	-1
-1.1877618291394891	1.2032643724032064	-1.6470336232193263	1
-1.6329450357419946	-1.2816783467345028	1.9978806251810184	1
-1.4593218620106887	-1.113997578336618	-1.023107919668206	-1
-0.4061761140855673	0.9960443534407002	-0.43890414949200063	1
-0.7650344543298274	-2.248573182239783	-0.6469311404567942	-1
-0.9462391022691637	0.7510596201566072	-1.1794979841139952	1
-1.8826611815670498	0.9036035467751445	-0.9879874649561278	1
0.894152283134459	1.4020336763209815	-2.014489207011507	-1
-1.5908441504570439	-0.8579066415382615	-0.6214733244553219	-1
0.48586942824652146	1.1555302066153947	1.2146045273067063	1
1.9756543212118367	1.464217561561977	0.5894214347660215	1
1.25090899812741	1.2840132884533861	1.9567406406899641	1
-1.4270121599553889	1.7976524002516816	-1.742072984420049	1
0.8509194726367458	0.8155538122005391	-1.3309687842776443	-1
0.5360523191765828	-1.845274746715553	-0.7690354752301706	1
0.5333937543114338	1.0601711806606842	0.381214172849079	1
0.3658247317951787	-0.5933170157204906	1.1663932089898899	-1
0.4431345321653095	1.196087662661235	-0.6469912112434671	-1
0.7455392924153708	1.9666550073910056	-1.0619733284109039	-1
0.7970129513679275	1.1303775294429443	-0.9002972128935781	-1
1.393381741550551	-0.8641215940925288	-1.7658060098259694	1
-2.1140676273989834	-1.848442155622146	1.8914443686832887	1
-1.392069637148925	1.771134137082588	-0.09325591191209798	1
0.8022966299350476	1.0940928510144994	0.7073396447659454	1
0.554554868063903	-0.8699096357567074	1.4658830386711332	-1
0.96344576711886	-0.8598507047987676	-1.0751449707555436	1
0.7779216745752491	1.3781936364991596	-0.8987759036973021	-1
-1.1296311693375385	1.017357319709008	0.572401077274762	-1
0.8787836659758219	-1.03062965843747	0.8272872555306648	-1
-1.3722616555770228	0.6367362890280679	-1.5286363797034932	1
-0.25718012656884176	-0.8152234311239666	1.0126546697869194	1
0.4216568544585296	0.7187460610547617	0.0881798028662523	1
-0.641588920672065	-1.0270013283222743	-0.8469687224861954	-1
0.8953434153265416	-1.151706224263117	-1.7616747857083994	1
-0.9636781323355254	0.6106707782986218	-0.8773284642665925	1
-1.6427176200547042	-1.7020195929228483	0.9644470141621797	1
0.5724393794215271	-0.9617915537263327	1.6509248465255735	-1
0.9096628232418443	-0.6848268937442494	-0.3600603382154885	1
0.6812836230025009	-0.6561054730397995	0.653723603742815	-1
0.8094062812134116	0.4133336115666397	-0.3107309009493275	-1
0.32627920286901535	-0.21754045338654754	-1.0635015786277375	1
0.8835637342023713	0.8585828919066936	1.3687436401677453	1
-0.44646574678134593	1.6353992003620448	-0.9350189057848516	1
1.7519388824707436	-1.1602070207224813	1.4509117374643934	-1
1.0117041043684352	-0.3795904236100355	-0.7782079503377936	1
-1.9648082199747958	2.5817062272069418	1.2477167832744873	-1
-0.9550510081317434	-0.9419649032530109	0.44823695377308026	1
1.2278513830939801	-1.0214872808533342	0.8626938670964702	-1
-1.0131030534171275	0.37801148666243334	1.1345744805238354	-1
-0.9672898731286017	-1.1686206135691168	1.279369353676849	1
-0.49729705573695715	0.5604078055617348	0.7192263496558622	-1
-0.4384266272386098	1.3340876926629734	-1.0089220821920806	1
0.6735627042202368	-1.7948687972093536	-0.6592073406871916	1
1.1112088322674811	1.2462120477910255	0.6490025129628959	1
-0.7320926076594672	0.5932639230306098	0.4843815716395538	-1
-1.0958327765054319	-1.8076635663929679	2.2949964889747583	1
-0.2581320047397197	-0.9798398540234365	0.6198600484561839	1
-1.185209237764611	-1.0456456437453596	0.8212660700227471	1
0.5653801634727035	0.9099057673193972	-1.3564310535810573	-1
-0.7335377445167778	-0.35734320583667323	-0.641230420848252	-1
1.6710026285291315	1.073692189608251	-1.0748693131892353	-1
-2.0177486359814143	-1.1705721038555883	1.6503704958675542	1
-0.8600734030637636	0.44206588925766677	-0.3996834032986278	1
-0.7340937694809457	-0.13992730223782388	1.1589812743075905	1
1.0155053641397014	-0.40253356829955944	0.13269540593373327	-1
1.2326992868677493	1.3192480010397514	0.21576750202353107	1
0.2219038846965661	-1.1042700453045087	-1.1216994088978036	1
0.48169645863464067	-0.35322321208025603	0.8810524429350416	-1
1.0808262355525833	-1.4936077528562288	1.1871340885318238	-1
1.753659957205796	1.2815497184542899	1.10526214696463	1
1.5346685641277757	1.5424550079289532	-0.9079287030112898	-1
-1.6754632498151236	0.5715207714604067	-1.4223245145479844	1
1.2319175924689203	-0.6639809260273277	-0.6841880951565813	1
-1.7726440952711897	-1.3451652854582363	-1.5432629576096326	-1
1.5108415680961094	-1.5073033630032449	-1.4911577500960904	1
-1.5620877404144584	1.4588659828150081	-0.7039643316674713	1
1.484513709939865	-2.423830796569259	-1.4395972152729353	1
-0.39176433064984484	0.32483799500122057	0.501243806972595	-1
1.689470742105434	1.5710102294315424	-1.3018506013801003	-1
1.0166790148914937	1.4578944300741365	0.33417206387650267	1
-2.106399886951989	-1.1408689864312822	-1.0675021251131456	-1
-0.9038398890176028	0.48191669506336504	1.362676904315309	-1
-0.9758502196356189	-0.5939922777748844	0.9149525911198633	1
-1.511217573350112	-0.9733778804083141	-1.1502970977037166	-1
1.5050371555253426	1.5421384390703634	1.8601453301833943	1
0.5271618220612694	0.8953981191843674	0.2543422131194499	1
0.6163140991570399	0.6880499085248698	0.26629445655887535	1
1.4865711294330641	-0.4253630257375444	0.15246850799194417	-1
0.6081213316766751	1.0283714391374448	0.881823668858376	1
-0.9170446316704175	0.8344495935506814	-1.413780788854849	1
0.7165968465095763	-0.6454807247457226	-0.7461404675480852	1
1.0753833839858682	2.246774751611098	0.8543164591071442	1
-0.6235000256686565	0.6015023935045223	-1.6950969587215745	1
1.2408947903757257	-0.5780575290698909	1.0006684655939388	-1
-0.4446366004306319	1.002114528035609	1.0306352164473382	-1
-0.47785699584963626	0.8459048110757952	0.606063897103962	-1
0.7425993037520471	-0.7967366571060341	1.6422545112664402	-1
1.0613298243983385	1.0747699287174506	-0.4894954371038311	-1
0.7864094954815046	0.7096445664417486	-0.8470684665382473	-1
1.6061909137059904	1.1105713326386837	1.0230338323528751	1
0.6398547498582384	0.7853013585871639	1.0789037770806873	1
1.4673620334488389	-1.0692875042555812	-2.2947675611827543	1
0.36026788306213886	0.5138716750336811	-0.7573176199399992	-1
1.621839924223921	0.9120533504598193	0.8906320515588674	1
0.7561629421675651	1.0064786114164161	-0.738155905404754	-1
0.5035737976052352	0.8780060449637068	1.0165646436947327	1
-0.5785048444009682	-0.9606742144908396	-1.214614836446608	-1
-0.6667311965929732	1.4506836769269582	0.8466898389654531	-1
-0.33878527408896403	-0.6476716231862626	-0.5535950074432905	-1
-0.24406693261163004	-0.48026741323803634	-1.2000046373813276	-1
-0.6296181048518701	-1.3062395642652653	1.0829633519263464	1
0.9684857213149022	-0.5872534272388238	0.7901899206458837	-1
-0.8455210858074201	0.8615232618894789	0.8658121772904592	-1
0.6933028387408315	0.28033212559879167	-0.4345287896537901	-1
0.4981529350249032	-0.4663519798669767	0.7393174479576056	-1
-0.5068016070937393	0.5970114339029408	0.8339004723140259	-1
-0.12072425856587317	0.9678446144996289	0.8200337289083992	-1
1.1161125853827136	1.0277297546019166	-1.912674054806654	-1
0.8782726900920874	1.0739363694090205	1.2415161027138075	1
-0.4741442061335399	1.3374536620196835	1.0641099926951372	-1
0.6769757450630239	0.7036136743083043	1.4341979062489234	1
0.7809146608380263	-0.4421069160899747	2.093116696487629	-1
-0.2851267338765818	-1.070847963753869	-0.6782140435666073	-1
-0.7131745451995263	-1.1684391405411045	1.5859109343770068	1
-0.5535704762464915	-0.7078345496916865	0.9073068066335088	1
0.8856379038067314	-0.8665605976250274	-1.1328178199174788	1
0.84478119574913	-0.6379332000902043	1.3871430904942033	-1
0.16642207595008915	-0.8491977611563071	-1.4652724432172999	1
-1.6737415963719642	-0.8729980502501505	-1.6658910760624615	-1
0.5120980556980477	-1.0119006038065164	-0.8883106400471288	1
0.293732975393328	0.7730956736057061	0.6264476322065045	1
2.388875610146337	-1.0074852221912687	-1.8530616915123652	1
0.8326171881203456	-0.7572156391590935	0.653807341972133	-1
1.417221390967208	1.216137965316567	0.9661977156308446	1
0.347638507199717	-0.6988130686648385	0.7131180852073005	-1
-0.3400497237278062	-1.7144264817612052	-1.0925529334653992	-1
1.4223307043875213	0.9691382668854316	2.0793749823539605	1
0.21721246095053678	0.16090796731704157	-0.5603372678192384	-1
1.0290842931121058	-1.266965629716942	-0.503127695951705	1
0.44018749365597165	-1.2557406976671184	-0.3716475450275452	1
0.5046930057739227	0.7202057205698975	-0.5357754656504904	-1
1.776082537606165	1.1458779057069512	1.1862570714988379	1
-1.3679677651770046	-0.907566652290266	-1.8576992428198242	-1
0.8075736852913297	0.8784573849699697	-0.2605786650316006	-1
-1.0076169231840173	-0.5745403714647973	-2.5049070786407808	-1
0.8536221103190536	-1.7397451032809466	2.3028015338392094	-1
-0.8906931118020355	-0.9668428122757178	0.5429908668895614	1
2.1051501395706285	-1.0381133269186973	-1.4110754250108248	1
0.5061980636495521	-0.8613802757275704	-1.4778180386366664	1
-0.6479410552658006	0.6873512769926657	-0.857430407709903	1
-1.0688240681134986	0.4861792730819959	1.2164797228647433	-1
-0.6413910223761247	1.1996035455063039	1.0692839677834622	-1
-0.3155919208467479	-0.37670673606988414	-1.2135100611393772	-1
0.42393474894511923	-0.22332633898221219	-1.062513717142521	1
-1.0546926904611096	-1.2108785987824835	1.0320627717638668	1
-1.9654441257631072	-2.756537312364254	-2.1892211124193026	-1
1.0518151986338904	1.4677906041987514	-1.3995865769927551	-1
0.9990409930587326	-1.288507598679602	1.017720555341615	-1
-1.36275295145333	-1.2609733409740196	-1.0076690920909286	-1
0.5208302801786635	-0.5218065322813659	0.572997346058322	-1
1.0374141225599258	0.7033024104146112	-0.8368451393922568	-1
0.50905555790033	0.6115117640611264	-0.6531259048773117	-1
-0.425378944861146	-0.5794773223609107	-0.592368575990822	-1
-0.4162238422941467	1.3252583227905603	1.4919722852729693	-1
-2.0510477683112383	-0.9236763886270808	-1.7571874620570076	-1
1.4485614782310972	2.055607234833857	-1.8405418474797157	-1
-0.8763024966211159	-0.7454737713352704	0.43473782048263376	1
-0.3191648817827406	-0.6628905403616393	-0.4599446343356241	-1
-1.5288880769841617	1.0523221387608745	-0.7011354374286893	1
0.9427957032887101	-1.2685534603796607	1.1331769876494089	-1
1.194256501536686	0.7676093640732176	-0.8049049612720316	-1
0.7515684895492756	-1.6464546582915063	-1.2338842250320567	1
-1.257661271139854	-1.1455194739223484	-1.187612729125252	-1
0.2572521822289081	-0.6481383213440072	-1.20986363168634	1
0.16948847416189058	1.682831268650138	-1.5917232358536744	-1
1.3728678393249698	-0.6414916766464273	1.1924865924801256	-1
1.623032448343829	-0.7948136506664912	1.4715087100451318	-1
1.3415433324626345	-0.30409819475566435	-0.47577332959818924	1
0.9872147593948825	-0.5389153567576852	-0.4211155650139336	1
1.86313836240637	2.4715926120312415	1.9287323052011887	1
0.6452510215890852	0.5274929721265565	0.917151148878451	1
0.8971947926905394	-1.269607476684775	1.102601965594102	-1
1.0472880063505565	-0.6636200446584275	1.3912738395516624	-1
1.315709247396314	0.40572422381788303	-1.2823044899908442	-1
0.7117066149486994	0.31270470023792735	-0.8529712220349629	-1
0.4727776521863903	-0.5939262150218064	0.6554131683710056	-1
-2.515476718987234	1.0669414207500096	1.3906605731583273	-1
1.5850592516270094	1.2018228056142013	-1.7438668668668953	-1
-0.9933256884846412	0.6307725294118393	-0.7525226146364663	1
1.955873585959722	-1.8546592404194606	-1.3097529665820962	1
0.4730024947396458	-1.0543556409080928	-1.4330999679883032	1
-1.2507121353356951	-0.6436664250161539	1.1118753819163423	1
-0.16776973561322187	0.3200352539633573	0.36905073022096496	-1
-1.6339252624342049	-0.6534898209515387	-0.9933497517928681	-1
-0.5700706191005598	0.39524191343184095	0.8335826783034913	-1
-0.9395680851951869	0.9545805719886842	-0.6173542263212748	1
-1.2677390806134357	-1.0527416893749126	0.807772795885899	1
-0.8690091359764518	-1.5216595522798468	-1.1821483607832508	-1
0.49317857442624335	0.4054526085669845	-0.8015650677756373	-1
-1.4023979175993633	0.7577290681981727	0.7805860140604489	-1
1.8223305080079368	0.8026598543949156	-2.2474838143117277	-1
0.7690766118747603	-0.1701041404297713	-1.3021832466931917	1
1.001938467757576	0.7124763517993372	1.3298245314039097	1
0.7978260276962054	1.7581893592509965	1.5774203490391048	1
0.8590195232095872	-0.7820214378052269	0.5955812716880055	-1
-0.7181477492610107	-0.4160824835354839	-1.07407135325759	-1
1.2166074844334256	2.062160127925677	-1.1518976104563168	-1
-1.9944311391784109	2.0020535426647013	1.39781385588741	-1
-2.06448360600761	-1.620813688024381	-1.3788497159790278	-1
-0.602531559095294	0.9169401505039403	1.0503520246899345	-1
1.2385449734700766	-0.9017440817987231	-0.7409363327045837	1
-1.8611666831075373	1.289987235778079	1.1808635476905962	-1
-1.0393047729734672	0.9297301938251888	-1.302937692889425	1
-2.00843414505399	1.3460695459701426	1.4855327621726595	-1
-1.4268118500904678	1.3958013624094925	-1.736292048166761	1
-0.8218953620024725	-1.4490826238375325	0.7207893899189872	1
-0.32343416006467673	-1.1017677767652712	1.0396594035404396	1
0.763008159120265	-1.1968342009820168	0.5101752325449993	-1
-1.0792156114770746	-0.3945287965879417	-0.8783741496627944	-1
1.3480712872326768	1.1877135024474115	-1.0704710883008723	-1
-0.827407943511627	-0.651333837904617	-0.4547718396323324	-1
1.0163891262673541	0.5600808395333443	0.5700554598167326	1
-0.9808789547999576	-1.3962358024961148	-0.831749680804143	-1
1.1909678016652148	0.5658244697844476	-0.6128524581170642	-1
-0.7382616071504575	0.5264070414292126	1.8808830505820322	-1
1.9808905402503534	-1.446852715324253	-1.2118894969049088	1
-0.42461390814230526	0.6536359214506872	-0.6373958579560388	1
1.045911952199335	1.6519109218123813	-2.1191135937887617	-1
0.9377961607967367	0.7873415023360123	-0.5663023011273459	-1
0.8969190455519304	-0.9190955586556133	-0.7589062147899699	1
-0.4211494001097877	-1.0408694330057702	-0.48789360604174625	-1
-1.09900430631387	-0.6832417287612755	1.3188018166207929	1
1.4305782693268478	1.7006670012894418	-1.1921629804071032	-1
0.23860938194309186	1.1312181690831389	-1.7170724057065596	-1
-1.0030727156942367	-1.0585291642267531	0.992348722679777	1
-0.9687094919670618	0.8521368644199712	-1.4815332558908436	1
-1.1419421019628586	-1.5633117524030016	1.575560532388681	1
1.117615122230003	-1.7791171273341497	-0.7688836425659208	1
0.5566226113100697	-0.1363187582933821	0.6125160723080985	-1
-0.7955788984828904	-0.5411480359148382	-1.1057968071762945	-1
-0.6406845488332141	-0.850384889270773	0.7632398285499375	1
0.5096209927275716	-1.0953164366186354	0.3222326260660116	-1
1.117682501348539	0.20379460973550187	0.5555781046279735	1
1.4757833980834798	-1.913574862478823	-1.102162823339856	1
-0.6946226298776613	0.5249084754533042	1.2341163204753562	-1
-0.7524856574878758	0.5052585802563295	0.5597378515471078	-1
1.560965280031229	-0.9090447288907444	-0.4531543525276937	1
-0.6048051093450003	-0.6965797241349809	1.31671988252015	1
-1.3814715796846528	0.6902173704210235	-1.8097271496168874	1
1.4801550629740015	1.3891326124363115	-0.5874666797257372	-1
-0.5098766364637719	-1.1278553239333462	-1.1598049997573623	-1
1.9156163212024984	0.34399132421201994	1.7841819140150663	1
-1.164876683737751	-0.18947198926144188	0.5690890973961164	1
0.8128302055809519	-0.5091811655629788	0.4348029912239958	-1
0.3179999035362545	-1.3384397194284472	-2.2628036093825936	1
0.9565828319763701	1.0581669148319752	0.7200536103451682	1
-0.323908385086807	0.492004841967961	0.5058193916554266	-1
0.8208687121569584	0.5679705128573596	-1.0962344557030739	-1
-1.4565084923328042	1.7672906364597933	1.2996818745241026	-1
1.123101522547402	0.8674657609116979	1.3531131070826892	1
-0.17935955618827532	0.5759571101194437	-0.7618602017341924	1
0.4363473899660071	2.3443941671676027	-2.4381653512159662	-1
0.6307095616691313	-0.8425963771278848	-0.8369426144877417	1
-0.6745051040398725	-1.8621291594958453	1.2604606253439619	1
-0.9075660451887532	-0.30791491270043303	-0.5958608177614994	-1
0.8009615837882667	0.8506835332928566	-1.1772486951632548	-1
0.9843479634301991	0.6717698872960156	-1.0282328124662259	-1
-1.7951799262889054	-0.6010262689632258	-1.1490264429187929	-1
1.6131398887613113	0.7222332455066308	1.3176777345611512	1
-1.1088937452841823	-1.6668045187277585	-0.8925806834092935	-1
-1.423192573889267	-1.9913172524656606	0.8050381093073176	1
-0.43342015894160496	0.3677533273636795	-0.7561164175068695	1
-1.197481681017165	0.8395418628528794	1.2976210453596444	-1
-1.738504383663328	-0.5907271387246891	1.3343538366008354	1
0.5924760622649373	-0.3267051169646668	-0.5042530250702439	1
0.5532692677984872	0.5441906228445405	-0.5199196399250143	-1
-0.7800177439975813	-0.47828596792865136	0.15323403162480514	1
-0.6490197047166215	-1.3024702216340627	0.9207154350732575	1
-1.0679674680169133	1.039777254589073	0.7078349885123552	-1
-2.6821011793153544	2.141358059811917	1.7737549598488174	-1
-0.6774075544512079	1.3511552148572203	0.9530782964484811	-1
-0.5252907260622001	0.3445220994304723	0.44458665414228404	-1
-1.5950698604811395	0.7770860171803843	-0.28730440961332115	1
1.5663183823254236	-0.5603048926893326	1.6756978280778165	-1
-1.1874502847447619	0.7705710611329109	1.1122702899910173	-1
1.7331824761326666	-1.4254785145668105	1.1995297972107488	-1
-0.6825379022579305	-0.8511604770476121	1.3150551161652881	1
-0.2744279786255329	-0.3730978521071858	-0.7238034751421116	-1
-2.47845301714246	-1.1480025915008192	-0.7777557729452922	-1
1.6772723696864054	0.57157935269707	1.3649651544996013	1
0.3739996672365229	-2.4997865486719544	1.2573003720104872	-1
-0.7719710439934183	0.32721104985118765	-0.43167950038406744	1
-0.778787527941866	-0.42518533876722353	0.23347521997705678	1
1.5398482476088047	-1.0066723657182057	0.8491853073685898	-1
-0.7705248140462607	-0.9497258287757288	1.143735921241178	1
-0.7050204503611652	-0.997745553783526	-0.7803084544863447	-1
-1.156147019420403	-2.572985712054965	1.4822575559787252	1
1.2934464101781598	0.8536379280438121	1.3072999064800026	1
-1.2512534400234188	0.9318269907152656	1.8766679051811477	-1
-0.9916934622380643	0.6654804877239331	-0.5887973277114184	1
0.6986638544714752	1.086443182131443	1.3361592431470948	1
-0.738255888468935	0.21229525320156994	0.7578520753509261	-1
-0.929272967934139	-0.17191717332419865	1.186447802627466	1
0.4146776604372452	-0.7128115376539768	0.4886951146777261	-1
-0.45915274930926303	-0.4736548214237568	-0.3783034448775292	-1
-0.8372457633879128	-0.939052155256018	-0.9820422456587565	-1
-0.2939381171931194	0.5849006964802684	0.7092489955179806	-1
-1.3879908153178597	0.34550832419572997	-0.7974549762694134	1
-0.684261954222074	-1.055332050945061	-0.720273408603269	-1
0.280790688803005	-0.5675100329542997	-0.685448318921632	1
0.9784294308463448	-0.7081339036802978	-1.0426284446328624	1
-0.4746699513109925	1.4434319490324867	-1.2154762518081417	1
0.47204435920813465	0.8268011987235999	1.0297818083803223	1
-0.5339011960464959	0.7830568298886755	0.9661942180152224	-1
-0.5847588743268273	0.564573110664745	0.39184553770257846	-1
-0.5667829644310421	-2.9063486858937435	-1.8889239980531052	-1
1.3184610253077103	-0.7229518519057336	-0.9223128132413161	1
-1.6351134990086735	-1.8821636668327586	-0.9695042765560768	-1
0.9736203550899742	-0.5947084356825746	-0.7224384461878535	1
-2.1424246406660217	-0.8578954860520569	-0.6788283395452553	-1
-1.772047409844947	1.725081606125416	2.142364203171187	-1
0.3952597610560918	-0.6678171363854833	1.4285235913705232	-1
-0.795024909961122	0.7895170306433965	-1.317374071617239	1
-1.6133612870463339	0.30155147528732384	-0.7127524652748446	1
-0.4609460135837649	-1.0082042237536384	1.3848727355022608	1
-0.16688953371978393	0.3264736135928883	-0.4369783524757345	1
-0.35660962465806384	0.36610365185544236	-0.3952381155320146	1
-1.0761112566251592	0.718424526251412	1.2175595701925324	-1
-1.2812251706258766	-0.49465365866921235	0.7283299490510933	1
0.7391166511067192	0.44862385377923397	0.7475271067979541	1
1.3098542728330929	-0.9555537243992748	0.79025789212819	-1
-0.6938087865341571	-0.36180973770570446	-1.4708230505532158	-1
1.313186748399783	-1.347306929621974	-0.320516132982637	1
0.662114425721584	-0.23911448590621798	-0.2612234061923106	1
0.6968841659048612	-0.5073066617904604	0.6236649259645916	-1
2.457729448083989	-0.16656611014272446	1.9791865272654556	-1
-0.43913046736036976	0.5774550899102981	-0.8116373301577918	1
-1.4693965549999035	-1.5212645217177134	-1.1403143414435755	-1
0.4051378640093331	1.5625129328705016	0.991485097219624	1
1.2108156366051945	-0.6124660194060388	0.7939689158685256	-1
0.17649426613842434	-1.2433187325823287	1.0262831474654937	-1
1.0523972827930463	1.1609097911528117	-0.7101542396200283	-1
-1.1256209306066345	0.45354859701494327	-0.6299501062996379	1
-0.7342984945002352	0.7970769686988574	1.0428356851518024	-1
1.3533221876679749	-1.7608848906332046	0.8922269238115436	-1
0.5412184886200674	-0.4887373489657475	-0.4736120230788961	1
0.9973474745383561	-1.5669874359248352	-0.9646991843578947	1
-0.6679372506210013	1.0745752322958848	-0.444626279664955	1
-0.45626331635643447	1.4029669384903996	1.5781823973563482	-1
0.5587309480756902	0.8072551832896822	-1.2374686691501966	-1
-1.1693387746302797	-1.5083976408909454	-0.9777973540413462	-1
-0.47484057542834296	-0.43873297694285834	-0.27275977441795723	-1
0.7942114010775907	-0.8386504016607805	0.19794675277731621	-1
-0.8981331536404374	0.6121876557648593	-0.50995279435495	1
-1.3474985048450572	0.2907472948965781	-0.7256890664524726	1
-0.3808833816524096	0.4382044325073442	0.26676499037883716	-1
-0.7575171028723933	0.7213063372759883	0.8675811635137664	-1
-1.831022974458096	0.5510221534052743	-0.8045056698081366	1
0.8760497248254568	-0.439554533787336	-0.9246885412506081	1
0.7049548637814745	-0.3280308364571171	0.2772419158760983	-1
-0.9415608522570038	0.5447829412905195	-0.5441119174942178	1
-0.4665935040679665	1.2472402642907083	-0.5521566044474147	1
-1.3568719740714905	0.45178908719047794	1.651538619242812	-1
0.21429565148752627	0.5789005085033864	-0.45048271388118766	-1
-1.3114812101425637	0.878372497649432	0.8569623896175111	-1
-1.5125959656610748	0.4513125099429501	-1.2855041266418898	1
1.0211708757427707	-0.9598053162615274	-0.43422401618802414	1
-0.8123812339053953	0.9176540426170828	-0.9900581102458963	1
-0.6591748768021062	-0.939927634857154	-1.4508826043816216	-1
-0.4509704121543161	0.8929385292076284	0.9045138101964219	-1
-0.5674555045448763	2.986567299471949	-1.3210515439983013	1
1.4466239175431463	-0.4316976292095988	-0.8626116039475802	1
1.0351277466088968	-0.6488504823896281	-0.7376736407093771	1
1.215974514419881	1.0630478212265646	0.6413704410698643	1
0.40787871137536214	-1.291400299593628	-1.072059544475146	1
0.19758699224209103	0.8584111444024203	-1.0667217111846603	-1
1.2889075625559534	1.167786011503287	1.6354742510750484	1
-0.7213397213694528	-1.314677751232125	-1.1568741765859936	-1
-0.8701639540794845	-1.0430779968283388	0.3370068956895954	1
-1.1751996849740023	1.2049229666297443	-0.3254240511790535	1
-0.9192474384292124	0.30370943430021263	1.1186663830761707	-1
-0.5186464989476369	-0.8593177186225012	-0.8336831965205227	-1
-0.262715697760578	-0.3591060772183784	0.46206017020476786	1
0.5071964590433409	0.5609774838308257	-1.1774095183901339	-1
-0.9212399478638935	0.8684497811680644	-1.757420997174199	1
1.3935452939049915	0.3418998558569387	-0.7931050468197804	-1
-0.2557798762081768	-0.5126582394473924	0.24601187068199604	1
-0.7947069062895219	-1.4099719699224353	0.6142212257339414	1
-1.4719796137258603	0.6788646017774034	1.3833529241032885	-1
-0.7214035697885193	1.093573875822781	-1.5731045982250564	1
1.4691556327615187	-1.0580334509346863	0.272997745736549	-1
0.27765297743094347	-1.6306037430421054	1.1570915110811855	-1
-1.350630975272399	1.2319585517916734	1.503722992942654	-1
0.6683142241208836	-0.49533939030708113	-0.5969226177859719	1
-2.1333993941520397	-0.9271884194270863	0.9570613137670076	1
1.655923962202395	-0.3816704470318739	2.222752707646634	-1
-1.432280600051298	-1.7841867721502311	0.9882294149648051	1
-0.982509632357324	0.5220907047559041	-1.2033581288748059	1
0.6190848897147513	-0.7365281869582986	0.25920324165114805	-1
-0.6126952585741385	-1.9575746866392134	0.9722691613621326	1
2.064136906571915	-0.823276266878416	0.9380503244223161	-1
-1.0753128224641795	0.9860589763377183	1.1055225710123413	-1
0.35158441140921415	1.535798283587076	-1.862077216121939	-1
0.734417405230178	-0.21850599517135505	-0.47077082523835945	1
-0.8272452045116587	-0.6820650631710983	0.7651603926520218	1
3.428784722365074	0.9242245776507487	-1.0695659027564444	-1
-1.532615330697186	1.379831714530465	-0.7295967783410923	1
0.9067693918639078	1.1311091083960219	-0.7590372968142957	-1
-1.2739400308703577	0.7208601754313466	-0.4410082197533507	1
1.1671578684211084	0.890495865232116	1.2773725349135847	1
1.0524618976966986	0.5001797639468695	-0.27269557172908726	-1
-0.8701929188464169	-0.7839814484990492	-1.3128254684909946	-1
1.308288622623787	0.6672054973693999	-0.715797684993339	-1
-1.7234823782027988	-0.4729545513520865	-0.9634834978656335	-1
-0.7168927339342028	0.29563333284820825	-1.6385828239300932	1
0.8441973899257044	-0.43138385416377256	1.718434092659592	-1
0.8246423782731269	1.4360484921863872	0.12590196165038298	1
-0.41127296624742843	0.7579032483129684	-1.1982018945241169	1
-0.4868338473014552	0.8969723239714016	-1.3577654914766282	1
-0.4701552354531218	0.43272543146773573	0.5584888573457031	-1
-1.6553039304787909	0.9971220350097827	0.6610280612274391	-1
-1.0983228263168758	1.7386003180010812	1.2728011450088088	-1
-1.0440052172661365	-0.19731598573945583	0.6719106479009045	1
0.538908194838198	1.8108691603101545	-0.38580905962025724	-1
-0.9616236558055538	-0.4922056771537686	0.6317284705776998	1
-0.6864860805639121	1.9480538189985517	-0.47148411459478307	1
0.7006157691409471	-0.811292869684924	0.838384583618478	-1
2.5309803638844937	-0.7794104336907615	-2.8347891192205847	1
0.3822846252930838	-1.759361561446539	-1.7291806371360376	1
-1.2732630988833187	-3.0670625602190835	2.854916298607984	1
-0.8607350463298419	-0.8309249251912855	0.8675249725792922	1
-1.0738897827586114	-0.7691287775722424	0.4026635865779644	1
-0.4770869616143326	0.5704565553014961	0.5740938769305666	-1
1.0864182851895015	-0.19254831901326172	-0.32994084229597564	1
1.6210115303129382	-0.8894710032506263	0.9856457935670031	-1
-1.2803846988478353	0.7975349783995475	-0.8808945272482136	1
0.6100248301351497	1.1204887178149983	-0.9522992491328888	-1
1.1703785585864617	2.2341731231153483	-0.7935895131527112	-1
0.961340134476677	1.0315201021253795	-1.0057500980264005	-1
-0.9136394637638224	1.3054453921047269	-0.6062803780267902	1
-2.877812516420038	0.9834968367831671	0.6088356319790268	-1
-1.011789657074001	-1.2890205342915233	-1.4715743063864821	-1
-1.389351422622524	1.4582152336196441	1.061784955043447	-1
2.0309863904782945	1.4536816362399971	-1.0184034729654075	-1
-0.5487255578775266	0.6211693673622937	-0.9658759651343853	1
-0.4887905080060326	1.0089477485230571	-1.0588559712850591	1
-1.3534811572176135	-0.5249413946405757	0.37791484180313956	1
-0.4415699266370455	0.871633189198178	0.8595416667752377	-1
1.0585212989750208	1.3512576699623304	-1.5639434062388347	-1
-0.9474109850177443	1.5131462140919678	-0.31596367879968396	1
1.7543811408877314	1.092553445601274	1.3145074502005736	1
0.47295271835176006	1.0965705882044494	-0.8957912101679799	-1
-0.23342505246802478	-0.6096769303984355	0.20674691128361952	1
-0.997993897998787	-1.2747304659516439	1.6040670682849427	1
0.9450234073991686	-0.735396060969224	1.0996526571004552	-1
2.173199755938711	1.378400937381013	1.8803103189194794	1
2.9235921484016663	2.6970082281912315	-0.8184225453712083	-1
1.956357940242329	0.7091018685855308	-1.171940798623988	-1
-1.3828403051286569	-1.2380825230291777	-1.6600420956203656	-1
0.4372596681727974	0.6621480399284515	1.241721037192777	1
-1.485034453327477	-0.701497757911135	-0.9514611146506416	-1
-2.3913631788397884	1.4015203664860303	2.410987523794803	-1
1.3505046903465248	1.084439957538309	0.38006245512261577	1
-1.0627337909268577	-0.8291974697574306	-0.7026595933449993	-1
-0.7752916141964801	0.6524585265957108	-1.1825306440757142	1
1.0078055388528084	0.5081314407703155	-0.5899975834137293	-1
-0.36970599029696044	0.3711847070816344	-0.7360972166884849	1
-0.8111370884285192	1.0501140509273077	0.47906260078293467	-1
0.9886324126414903	-1.7056140500481556	0.3166360356510951	-1
0.9704530684037312	-0.6310074594511798	0.5799638526368888	-1
0.4150720153408674	1.1496373651506067	1.4370671825399937	1
-0.6310199619471059	1.1293295979466642	1.198327192301054	-1
0.8722708409159939	0.7513577263318529	1.0709992764220762	1
-1.5084538848006568	-0.9891821862126756	0.7279568270300343	1
1.7963651422102391	0.5442569482873991	-0.747755275227909	-1
0.7513447312667367	0.5502085316144009	-0.2036463467571752	-1
-1.1327838990083645	2.2123360316102905	-1.9021099767922671	1
2.3691065657593042	0.7126510629500883	0.4634263881732803	1
1.0886611417519414	0.4468204916674996	0.7207126344326347	1
3.2150604545427726	-2.249044723082562	-0.9552421953866322	1
1.5217222331629041	1.391701862582433	-0.42027840223913415	-1
0.8006807437767351	-0.3304903627122644	0.2844441469111523	-1
-1.2287212904562241	-0.9305194405414721	0.5352581475477594	1
-1.407212090834659	2.4893685318161034	-2.177884326822916	1
-0.7603480564517096	0.5004442643644085	-0.6734620519922979	1
0.8002381927440775	1.4498665240874251	-0.798491612486043	-1
-1.019479514484436	0.8880673237533907	1.933889479039152	-1
1.0036442910439645	0.7486518872345846	0.8254274473306835	1
0.728217008593629	0.21331487436946925	-0.8131843941990008	-1
-0.48654939361473465	-0.8604241916472978	1.5527426728082867	1
-1.0001634415438294	0.9590517142106233	0.48085185414070514	-1
0.5833564855277261	0.7140011722590538	-0.459221126925369	-1
1.8009047374124496	1.3122341914721058	1.0717626575775594	1
2.509111991198921	-2.3625449662419604	0.23372376772360998	-1
-0.8775344325648513	0.5795157043385963	0.8827662227635591	-1
-0.7821031723898763	1.0755088356333895	0.8587065458846074	-1
-0.8654690108874716	0.8494715391086882	0.8543356660039504	-1
1.5255926246072065	-0.6921024906550312	0.882956386048273	-1
0.29336439049830915	1.2123201478762506	-0.664461592143112	-1
0.7561357665687741	0.6958442690072966	1.4462697271812905	1
0.6611433592891802	-0.7666347189534697	-1.4525719498082237	1
-0.6163516885760074	-0.3606014579132545	-0.30121185608794665	-1
0.21290821596700094	-1.1342698643355127	0.8943286833891766	-1
-0.5189547398438518	-1.1911409878541752	0.7845336587073296	1
0.7326197673003013	-0.5826948743801417	-0.29087969606744	1
1.3920636439972407	-0.487898353692015	-0.9437552778729938	1
1.2463649890882045	1.477290751329349	1.2435836329371714	1
1.06127417974338	-0.39243112011856396	0.7446423892005472	-1
1.587671381612367	-1.111406151295782	1.2512181661746786	-1
-1.5534148623250745	0.7989335489907053	1.3957528212130619	-1
0.20389711412162503	-1.0416464859522747	-1.2237600269521556	1
-0.9127243359485118	-1.544568356705623	0.6754236895963718	1
0.545503068406052	-0.9476939994045401	-1.3451409994092418	1
-0.8891796209540846	1.1128776844845738	-1.4729803308998537	1
-2.261918539871608	-1.3053296645997028	-0.5247932858427428	-1
-1.3997727917471525	1.2493336574241003	-1.0987351277905297	1
-1.614300379227608	-0.6924730328324373	1.0920041850876772	1
-0.6416254395492123	-0.9547313248517452	-1.2803495643964746	-1
-1.113481288541124	-0.45658735322896044	0.2780391342734341	1
-0.934996671350586	0.547380511248246	-0.2924725992796947	1
0.47323924595604566	0.6196389398728555	0.14624671215317828	1
-1.250624626894495	1.3244437439800405	-0.5339587025015644	1
-0.6891599554135607	0.4358142716454679	-1.1551147336741039	1
0.5695529272964042	2.050831836986084	-0.9369442405633244	-1
1.21853067306548	-2.226307949441009	0.5467540788415363	-1
0.35529976442045635	-0.38604488284844757	0.2541561190761114	-1
-1.2107054194839815	-1.9654552493311575	-1.7008327893141555	-1
-0.6265653071764645	-0.550799392848724	-0.5474834849035036	-1
-1.8696078104903564	0.7748638066034883	1.6348300753723497	-1
-1.2646858895129343	0.9563881486690357	-1.0323697985180573	1
-1.021430315666959	-0.6907874907467603	-0.9656472713214861	-1
1.1153681763033532	-0.7274397493959996	-1.6149175180470916	1
0.8981620402556628	1.0171845752752355	0.7793199578577553	1
0.7789138496587946	1.7675882207556424	-0.5576259539263443	-1
1.3438700881728454	0.5185261621578986	-0.956975441481802	-1
0.8742340866386705	0.40892646569845326	-1.523141994398023	-1
-0.4428419067387795	-0.5028080377901165	0.4594206609285516	1
-1.125242362051632	1.0688079408686886	1.3545522823981149	-1
-1.106502578003451	0.8541802528502473	-1.0224715441699757	1
-0.6031228977476778	1.8999383352686572	1.0526002240226349	-1
-0.7753742654285309	-0.7552182780824302	-2.268162916703122	-1
-1.1682325791992596	0.6430569428137526	0.21762200880024465	-1
-0.5322393662131782	1.2361585882254937	1.3774543371332557	-1
1.013082097154509	-1.1236943319136106	0.5021901978268296	-1
0.8963284746436812	1.0997613460721467	0.7101781445199865	1
1.1797442103666667	-0.6365483052313489	-0.7879627121899295	1
-1.266124662943859	0.7765037797455231	-0.5956759844302877	1
-0.8234160240619843	0.7590509971367657	1.302468666111225	-1
-0.37675368063552694	-0.5579770088296663	-1.0089486119333293	-1
1.7925233390859088	-0.9969109134297958	0.9976276618771376	-1
2.233608845966619	1.2166671879804651	-0.8512758994903072	-1
1.6671735401136285	1.0566882131200994	-0.4910498703259407	-1
-0.5470447689118968	-0.986376943616032	1.2442791994940965	1
0.496326018808053	1.1066975367954162	-0.8579358671182767	-1
-0.5906742988759895	0.7965347113290441	-0.6494727298533157	1
1.7065603298674745	1.8472641257539388	2.889317515449312	1
-1.2891133388594296	1.0482645875933394	1.1397650415126104	-1
-0.9748113203903185	1.0831910543173844	1.115106385863725	-1
0.876454398047998	-0.31748827565088455	-1.2030450016922898	1
1.549121256277833	-0.7488488823036487	-1.60915361126523	1
0.4926371564621107	-0.8332324507175142	-0.9699450194194013	1
1.4739955121693533	-0.9550332522143012	0.9677874823657305	-1
1.3320625543769982	-0.7477660380957052	1.1293629328389134	-1
0.6383165484866238	-1.0553068472675642	-1.0693860247802316	1
0.37481339944135794	-1.5951742902690815	0.3599700827370716	-1
1.238339098056219	-0.8343135969299338	0.8461240725311865	-1
-1.3032782909010447	1.176524310491512	-1.3210985328954228	1
0.844791785817629	-1.1680887082960694	0.3479402388158695	-1
-0.40968331240581907	0.8336483178423612	-0.6512361477855112	1
-0.5667361005321451	1.5966261542967581	-1.6780420379549903	1
1.126877369449252	0.8047676849991217	-0.9136105076780094	-1
