0.38955368227817466	0.2250429547028582	-2.116342343259338	1
0.1726903253154935	-0.20189615463908034	1.234701288163925	-1
-0.20508040067724181	-0.26587130507230206	1.377170243981423	-1
2.0584794261160275	1.236199669618049	0.2274294259065529	-1
-1.5299280047382384	1.2725376572137295	0.7866983756769371	-1
-0.03070912350334571	-1.328262782036269	1.2084424088866896	-1
-0.8588633128743033	-0.1865063669717747	-1.5866109584617503	-1
-0.31224219670574216	-1.2196987346156183	-1.3293070314001194	-1
-0.3426103425637306	-1.3284256754143229	-0.7225049866443274	-1
-0.2494609561272544	1.6038254850379012	1.9079646443666545	1
-0.9947326125696083	1.3303935841192909	-0.014729206859438616	-1
-0.10675409221266237	-0.7589063466831335	-1.034549375062084	-1
1.2343093342624292	0.8164881232685408	0.1699028280469887	-1
-1.3488526585707261	-2.048489082979041	0.10801877829527405	1
0.8442316017562483	0.9869279804008851	0.5794024424584061	-1
-0.4235738186986557	0.5470208727823134	2.0236831273325473	1
0.10995490197703879	1.1486574404443703	1.1659416136188527	1
-0.5684829275413655	-0.49490988486823967	-0.06020441636667661	1
0.4175465155980928	0.7112744173781461	0.16500165113875845	-1
2.113706938927774	1.395781589400784	-0.19826989241479615	-1
-0.017589467649237103	0.5516616803466845	-1.857768873966058	1
-0.920412456748043	-0.49295574824332367	-0.6053342280007147	1
-0.7906631794273337	1.8355934972333185	1.9048389347094845	1
-0.22127132449035491	1.6576989416298749	1.6215437844592195	1
-0.26948255512494135	-0.9156472760773117	1.4697136732220701	-1
0.3133512906618554	0.9608095247206248	2.0183792681954986	1
-0.6067107156861153	0.5755208109414541	1.2820372876763093	1
-0.3999579500916325	-1.3551055379501866	1.223588635784612	-1
-0.2691583887755106	0.8069927986332982	0.7912179238852408	1
0.3589847626180675	-0.7538960224147007	-2.1550833662754054	-1
0.15017613297541368	-0.73605887148734	-0.8709000462384113	-1
-1.5570961374747805	-0.7021615782611598	0.11276840474403545	1
-1.5261712336502402	1.0391347567437272	-0.009694017816454101	-1
-0.46414033931666093	-1.286721967790798	1.431211237670338	-1
-0.5554476353152814	1.036642840435398	-2.536159421926704	1
-1.866724422026878	1.0581964785380766	-1.1768838347775998	-1
-1.5693767484068004	1.5857137858560593	0.11617223266036217	-1
-1.3899713604231323	0.47609773889943635	0.02680482031447408	-1
-1.3778787243253392	-1.3431160853637258	0.3280027500550978	1
-1.1846968234446604	-0.5297841515049772	-0.14235923350022847	1
-1.9318757968550562	-0.839056539990849	-0.6385825105951626	1
-0.03549468968980654	-0.9718875606592194	1.0069897320137005	-1
-1.477949433888578	-0.5757572029913177	0.6397714264998074	1
-0.6341379109540989	-0.9271686400075985	1.841449873967821	-1
-1.893830504946924	1.0476532742921811	0.05402897993055755	-1
-0.6483536432064213	0.34417479589552363	-1.045660213892481	1
2.1465723920242623	-0.47111384287243174	-0.7093490753971943	1
-0.8613850889101933	-0.8645296013971004	-0.3413299686317726	1
1.4840468180614843	-1.4678779435282756	-0.5759258362266021	1
0.13790112575618949	0.40604226393174303	-1.252433031854066	1
0.1419120886487096	-1.3865038154942593	1.996370707254811	-1
1.6246128818056969	-0.856854183123719	-0.12483352387167031	1
-0.44281430808951194	2.0272250402497756	1.6000201922166273	1
1.0272446266667268	-0.649420085038851	0.08537941882868645	1
0.12438125383330234	1.1397468494109813	-1.620454835829884	1
0.8413660122713916	-1.476182314727397	-1.7268804630937407	-1
-2.321750315651433	-2.184169762988445	0.34736416419803473	1
0.2618556886243129	0.46588825760902763	1.5735027781622482	1
-0.1268400837202473	1.7456546829086936	-0.885958648941966	1
-0.24122517244669595	0.523574977302736	0.857863853167867	1
1.8129947099579629	0.6846256935580999	0.5988026467757444	-1
0.1914188936604938	1.0219282367465703	1.702646171607122	1
-1.389158064393008	-1.0424140264415447	-0.5479523718568416	1
-0.15296348880523103	1.2503331109395361	-1.2866552406398326	1
-0.595175892872031	0.5790012263456815	2.4179512043272022	1
-0.2509074400139647	1.5888962118752836	-0.6974843509183467	1
-0.9306527816563531	-0.36306142794496304	1.4728407110764556	-1
-1.4666460596208941	-0.8278596872243746	-0.021876909296432167	1
-0.6392977595510961	-0.4378908037877489	0.45933513514228486	1
0.3688764891231103	-0.6726997671229181	-0.7581497603461874	-1
0.38936064508552065	-0.7407833259746486	-1.1679094576228986	-1
-0.6896793679814257	2.886271644944711	0.3659775983661686	-1
-0.5453308001830943	1.1651495131622178	1.7381885117939637	1
0.12911515817093477	0.790296838837862	1.6127876785613287	1
-1.6657011264796524	-1.0092356753021674	-0.3159956530974566	1
0.2115489899681752	-1.5930338238427675	3.3344256284923035	-1
0.9596616253161173	0.8365554632952741	0.0815347383007115	-1
-1.181735316744779	0.751452273275844	-0.31322952938117954	-1
-0.3664372329412256	-0.7606715283947029	-0.8586559645206453	-1
-0.8090979021414887	-0.5003739016221393	-3.146830385351356	-1
-0.08878828050588015	0.8387253384621243	-1.6829820691574142	1
-0.7474404462568696	0.45509708633035184	-0.3238362111622476	-1
0.17803619580049823	1.5300845350426955	2.4224262934174767	1
-0.26924675580390006	0.5107331237362831	-1.030101272164561	1
-0.8266795352738857	-0.6314730245601821	-0.1709848071482609	1
0.42213358315100785	0.445683054047465	-0.9756491714198099	1
0.043025695265812985	1.3855314410465003	-0.7460800081397092	1
-1.3693349141432525	0.20586279949325703	0.2308935692284293	-1
-0.05611499169800508	-0.851902749004959	-1.798886946404803	-1
-2.061420242431029	2.1198527528838595	0.8167536329653498	-1
-0.05041158816161723	0.6387291254593477	-0.8425299460792082	1
0.3047085541052317	1.0070036624936518	-1.391943722589152	1
1.3461620974987147	2.2799050781960415	0.2533388598217846	-1
-0.885086379384628	1.3762148982154585	0.2049727455599061	-1
-0.8304856688148187	-1.0132204863936456	0.2510426658182298	1
-1.096637185154005	1.9526480344137103	-0.6592436100078267	-1
-0.04434509561901931	-0.8782631064520962	-2.130202956345268	-1
-1.2027903921226544	0.1353686173299978	0.09162617627343433	-1
-1.6655888771848724	0.9183087051879449	-0.3277636066491195	-1
2.178369973493108	-1.729981550975403	-1.3288801329889197	1
1.207691201818435	0.6608052541651162	0.6106037746922357	-1
0.09855587919621678	0.5412411046537059	1.1830121227438204	1
-0.0375844847372143	0.4740690950677923	-2.352885140571563	1
-0.7653669624607786	-1.235879954710079	-0.49993074087915074	1
-0.0887360542858552	-0.8058416930830626	1.1336920866911955	-1
-1.165313715388976	-0.7011064673001179	-0.49046024251849246	1
-1.927375952017378	-1.2959747744853178	0.9681076060623973	1
-0.060513830480278544	0.852226634354297	-1.2649299853422378	1
-0.15715849549780322	-0.3057744219926415	1.1986522028948776	-1
-0.3994760379290973	-1.385509744411182	1.2536950246479697	-1
0.560996724616769	-0.781611263563815	0.8744925937457304	-1
-0.2552621274850225	-1.0508280149939477	1.2546303159611862	-1
-1.5346700562691717	1.2307394298221634	-0.4175516058078387	-1
-1.6316758458693965	0.9008628010684169	0.17630839789260058	-1
0.12261214062161725	-1.4387972996821192	-1.8516559596392985	-1
-0.09006646726260222	-0.7988752322161213	1.357384756692734	-1
-0.37130482113210006	-1.309034621707269	0.48385016758288524	-1
0.9081305115004746	2.2166052865382766	-1.8787089948034876	1
1.4057585679149962	0.6505437006159065	-0.23206076264027062	-1
0.17549147963089692	-1.3468440216531485	-0.7387925428353436	-1
0.14185665788756102	0.7250025380644637	1.6356446089286856	1
1.3449898518978123	-0.6420367222739968	0.2557525634213048	1
0.7932961301825866	-0.7708913201480161	-0.13377867038312846	1
-0.3334872232350455	2.431857803029189	-0.983600522907158	1
0.9629311266499295	-0.39173245983445726	-1.5358036071381513	-1
-0.46271840688329907	1.3426088027026089	-0.13061184259051184	-1
-0.08690416180413926	1.6662431137665477	0.8566767818707595	1
-1.8580168678046218	0.8445892918156397	-0.037846670511913476	-1
1.5769353101442336	0.8301414239945564	-0.0002343377987069818	-1
-1.341841051064825	-1.2072074200860425	-0.009492830203774727	1
0.176445857741387	-0.8518145086562374	2.0650684115144915	-1
-1.2671266746839946	1.7746277331304574	-0.021709848007093677	-1
0.8893800568769704	0.47967000579515323	-0.1177448978186593	-1
-0.14193576571099242	0.3064271716819642	-1.4825325638000384	1
0.08051055212606599	0.5264215941290254	-1.2484663148633515	1
0.19333917079426877	0.584995634202182	0.8722113030844932	1
-0.033140856825588344	-0.9299518172558074	0.9454128707290237	-1
-1.2023254968921446	1.2214100826550658	-0.42401511926101343	-1
0.04405774075148223	1.044694163399988	1.9636921453481642	1
0.038324872419311845	-0.8559199936013508	0.5674399673773974	-1
1.0019997468444275	-1.5383992424979172	-0.24161755571096216	1
-1.1871340798103338	-0.7535895346241857	-0.3900966278023244	1
-0.7711282777760328	1.2940169387760636	-0.11028276827905688	-1
0.20474823737662923	0.7578524307483233	1.1860836011728662	1
-0.8322608004306894	-1.4283075446958025	-0.6486236054132405	1
-0.8458349473715558	-0.6749402107813742	0.11469620240151535	1
-0.08756641457854236	0.765557878661201	1.7197680657716123	1
0.45110175815430487	1.5738428601569125	-1.3829738285354933	1
-1.2788246390139817	-0.8049076959859092	-0.28699961838871807	1
1.2924950978946286	0.7518996124349436	-0.5210319441372325	-1
-0.282698557981131	1.0453331612846586	-1.7979035963318362	1
-1.7427630966375862	1.6174066412900068	0.12449005384520372	-1
0.3065037524314778	0.905458430607666	1.2337987697366959	1
-1.2659519176899305	-0.6455337952593408	-0.2680958123407064	1
1.1634545081799428	-1.1854226199471316	-0.23734502142433805	1
0.19111084896535993	0.8303429889721136	2.8521472246313597	1
1.8123600417046501	1.327038301120945	-0.07979703667161692	-1
1.0282699888043563	-0.6267080739568511	0.30398694616465965	1
-1.8898606552383013	1.4970383280790442	-0.4582848740750888	-1
-0.9533017473519504	-1.199363160902838	0.4550539097836991	1
-1.0088004316847612	-0.4848627934825225	-0.12616251133213563	1
-0.6788647529647558	-0.5969304971884454	0.14588203830794616	1
0.9004078743090542	1.0210495498383219	2.174394768216805	1
1.3678874881240677	-1.1712996726731908	0.07713392052629468	1
-1.990584251023396	-0.8453899986066049	0.9390770224868155	1
0.28748472297227945	-1.2153444469115147	-1.660735842996125	-1
1.6109128925545688	-1.2410493193381642	-0.006490357520054541	1
-0.6661990637175909	-0.6279495772980194	-0.05003530602595038	1
-0.1920670402772252	-1.0956657848294462	1.4540872467184598	-1
-0.4408842021339033	-0.8336799466325973	-1.3289246425282486	-1
-1.531371833351396	-0.45346829062516525	-0.132958590919159	1
1.791583656297128	-0.44855461736341007	0.39347627736479057	1
-0.35165225827800106	1.5531123065411103	1.215074436360283	1
1.444428709209669	0.886906496285201	0.4095300214133792	-1
0.9067440209536342	-0.7142958551419039	-0.14011432694978068	1
-0.30183255703458245	-1.3472377251391088	1.836230720056921	-1
1.4015965062285058	0.42544917577310337	0.8398686761653864	-1
0.009623940086841039	-1.3334041959887504	0.9712681240814321	-1
2.620780587622207	-0.6362578401609582	-0.06026391949854907	1
-0.18556460442269868	2.0515990974105236	-0.752101801374092	1
-0.9602145058821636	0.4193581318172823	-0.10594209070244859	-1
-0.2852672000023631	-1.0613086532581593	1.7542896839582014	-1
0.4139181582409508	1.0164956460481214	0.027947427618818167	-1
2.1016962974344935	-0.9432871934462197	-0.5139557866962793	1
-0.7055301081621415	0.7560534195845575	1.8393369860002047	1
-0.36978657668850334	0.820110728370225	-1.1036819398232736	1
-0.05632997228481046	-0.6191823176726063	-1.066456649192055	-1
0.08594888260629141	0.9717933477348814	0.6981613639938292	1
-0.23002835276177322	0.39284527489075727	-1.1013690735346102	1
-1.0576544689315648	-1.3074773241361992	0.10969014401746105	1
-1.03422557059079	-1.695524409218576	-0.1551684121328269	1
-1.419828974466008	-1.3279652090053153	-0.05353466571005862	1
-1.8982567746916903	-0.5545631940971013	-0.20780031004512606	1
-1.3755478895272517	1.2796856360834337	-0.06357925992111757	-1
0.05162433566703263	-0.5681099523106895	-0.4602973895724454	-1
-0.6768308788766934	-1.0066145005579823	0.06273525279364128	1
1.0608992724435893	1.0833573805947978	-0.22042636099059246	-1
-0.1417257653048958	-1.0698094441373673	1.9573812225943283	-1
-0.8462823368309966	-0.27259024100613355	-0.10061578578471608	1
-0.021569591715671174	1.0199636500395666	-2.431139996240626	1
0.2013243950896947	-0.7560465579662706	0.5002609670737649	-1
1.7147734035294349	-0.5848023603729249	-0.5898954779841679	1
0.8266277292204818	-0.7830976942340104	-0.31577891467167785	1
-0.011803105079518213	-1.3403381707804831	-2.0567337050288703	-1
-1.2487239454501076	-1.29118697104923	0.16978087785996174	1
0.33514430952401336	0.8728676717276939	1.1792485223251525	1
0.41651778037829507	-0.5602629442308776	1.5363620839976821	-1
0.34608103306344895	0.8257721669878317	-1.5918142229643544	1
-1.364697514570016	-1.0444420996343415	-0.6653983358825466	1
1.7265655139059726	0.5784036952893903	-0.43793891083929976	-1
-0.10733701039926534	0.7710151545180917	1.4269471320927662	1
-0.1336368061588367	-1.1554129628890955	0.8302373068339727	-1
0.8374647310402197	-1.689188676807193	-0.5756987940914059	1
1.036697016872299	-1.500776951891552	0.05520910958550588	1
1.8820220015179776	0.9538086559720735	-0.08474684795795195	-1
-0.015648853164573033	1.3734572050138638	-1.0838832987057792	1
0.11244417986415062	0.9159774048547766	-0.996743257511734	1
1.5450342864040918	-0.998631807934769	-0.1940214354481325	1
-0.06118047032346766	-0.5259243803973929	-0.8578805073551461	-1
-0.6553871370948839	0.5377270984992503	1.761830804021451	1
1.7266278791321719	0.4834741938074735	-0.16391687461685073	-1
0.6537598088258726	-0.49475832072374415	0.2220297130894202	1
1.1130989763634105	-1.3100417472129626	-0.8033514403690447	1
-0.47175368086884967	-0.5385623463096464	0.19749348099460232	1
-0.8709930409554962	0.7548877891522716	-1.9343804964612907	1
1.8877476916932168	0.4456341548478087	-0.5152519709031211	-1
-1.6619611782275279	0.5740028273798463	0.2094800589333132	-1
-0.9908167278644066	-0.20427979288651332	-0.37479378921047035	1
0.6680770211358733	-1.129921814676662	-0.40828078519041855	1
-2.779378653416101	-1.8835226876770372	0.4799054301177056	1
-0.8898769711242729	-0.7116236581925242	-0.36972535933124506	1
2.303526970447076	-1.122614181027769	0.30981407634812114	1
-1.7734737528944202	1.0144192585551977	0.5841163582013369	-1
-0.13838727490259123	-1.0240349995747227	1.7417756442488366	-1
-0.05228728360766917	-1.107864274521627	-0.9125615449247166	-1
0.3954284100508343	0.7919054341553663	0.5502764448597829	1
-0.4723185915925062	-1.224430899848936	-1.1860854949389894	-1
-0.15102707144185543	1.1198404325280131	0.6129982423775484	1
-0.40018926283106354	1.7910499300599665	-2.5982925255772997	1
1.4553009391977527	-0.6917557673474071	-2.4068439852322467	-1
0.017445545867468708	-0.6756635252152648	0.9507037052816527	-1
0.5070863473258527	-0.6450451018143033	0.07212377666243402	1
-0.051854163300499426	-0.6915104663294482	-0.9934978122832764	-1
-0.3995095407732649	0.736312244288662	1.0722054595580732	1
0.10021492001523427	-0.9888811232891741	-1.348416450136496	-1
-0.4704870065080147	0.6221126617441053	-1.2339608614311932	1
0.7226232834578479	1.4166578301355603	0.08315622095676761	-1
1.8268031873109192	-0.6840540918948399	-0.13782270901617613	1
-0.34758042086173563	-0.5707097939817716	-1.1080424459355158	-1
-0.2216146377727946	-1.9221549872592059	-1.5407357575992144	-1
-1.1241514131164698	0.9868423263184725	-0.18784251425513523	-1
-1.6153250050088586	-0.5440832272359954	-0.33594153863601645	1
0.07516021493119279	-1.7319971562646737	-1.227467572025276	-1
-0.1991368099325094	-0.50782478043144	1.1291599343892966	-1
0.3396552464636894	1.0095606491705125	1.1092226810792953	1
-0.6088491338760131	0.8507425722697279	0.21088282165829486	-1
1.9746987832622527	-0.9294200728479911	0.8126043829850108	1
1.5368827480341394	0.7639325138557087	0.48491341056260845	-1
0.9986810074062652	-0.3999632968488372	-0.04714995586665769	1
-0.7719627460433535	1.3391409908294571	-0.04425707987728549	-1
-1.237307656299697	0.9600649575950252	-0.2476612674010343	-1
-0.40190054530101593	-0.21927773383122082	1.2558809194107439	-1
0.35738002750536124	-1.1347553824038124	0.7587910564051511	-1
0.3400723640360144	-0.5078063236791597	0.8555339914115726	-1
-0.18042686179977926	-1.7439866342260384	-1.7481345043454821	-1
-2.0285811615558695	1.407435703254677	-0.05223392879884974	-1
-0.060013000909759334	-0.5125284531353979	-0.450964256920752	-1
-0.3156070296174741	-1.759390199563141	-1.218709406918805	-1
0.9135629715031794	0.9107719146035449	0.3592668059585281	-1
0.1864579051499239	0.5788517975592876	1.8020199361995985	1
-0.20563268247646072	-1.5992241480391873	2.7371786984897266	-1
0.24039667035998488	0.4481234690994702	-1.430794145348191	1
0.25872868792845427	-0.42646049349089027	1.2537173088348856	-1
-0.1625725553664032	-0.5983991774509727	-1.688711725141905	-1
-0.2743403723852154	1.2445910023404423	1.7693571584856038	1
-0.5121864456099209	1.026766824168293	-1.2775837673941512	1
-1.147214528162804	-1.4634627661359154	0.3633524700340602	1
-1.595374863778804	1.1337985431207551	-0.6849410290874846	-1
0.11890465289668009	-0.8437744009764899	1.744465325189761	-1
0.5063868512018102	0.8632428634541833	1.3108171644105548	1
0.020750086942356062	1.9303276276428705	-0.7288174650257011	1
-0.6873179987278726	1.2141856281349241	-1.5318119145608966	1
1.306379807439137	0.9238422594168396	0.43165277189899376	-1
-1.8509999947876299	0.6400403310958547	-0.5817204865422505	-1
-0.953018845282077	1.3771678767503603	0.41860449826324564	-1
0.15855794279339896	0.15915465352603042	-0.766309106610076	1
-0.9261671985445661	-0.6940795901592528	-0.1399599497820158	1
-0.661766879706255	0.7339215429891094	-1.430568889543773	1
1.3917386234914946	1.2482766859231584	-0.3424155815193769	-1
1.3146037554104055	-0.8773778389122255	0.6400465573490175	1
-1.0366449316602373	-0.8722093368100206	0.14374173888354397	1
-1.261359050367011	-0.8088038269391357	0.2120528234256816	1
1.349540020753854	-1.0137225494475117	-0.3734524926601026	1
1.3789931892256568	-1.3797436668885594	0.5059220601164566	1
0.7747088583898437	0.5669964250703907	0.5626984903549116	-1
-0.6675231211350252	-0.9784944107271821	-1.6367334116906502	-1
0.19475106108792561	0.625037718311538	0.8197970329053815	1
0.06031216875584975	0.694357996598177	-1.0246230474622438	1
-1.267368031376233	-0.8189487851861469	1.7690280935431884	-1
-1.3440173837276546	0.4520315748573494	-0.336781489185778	-1
0.25467145996317136	1.2696639407773986	2.1365495689992393	1
1.8533506353579599	-2.7624323159620614	-0.7164219323317064	1
-0.6755912474394323	0.5473021847417526	-0.22367381649260462	-1
0.011243909185713937	1.4873420755984075	0.6591985981266134	1
0.46246604846215045	0.4878606973841973	-0.8592720648539797	1
-0.35814331363642127	0.66027726509108	-2.518855561105104	1
0.41415307153929626	-0.10485496850645724	0.9612117277394019	-1
0.6524082076421092	0.9916485225707661	-1.125250171512311	1
0.46571673323544954	-1.0390466718042017	-1.4171908391194246	-1
1.238492111246237	-0.4462147833522472	0.21984950604982637	1
-0.19978101076218183	-1.0689741274082487	0.7668225106263326	-1
0.9586435350409759	-0.8736201922032665	-0.4618454536414097	1
-0.601750632779871	-1.097086795364892	1.2032018541816614	-1
1.1573216897279524	-1.1828645427712228	0.09563660595193649	1
0.10781718457610977	-0.6559460556082071	1.2335759817053833	-1
1.1616255520046561	-0.5657515397250384	-0.28570939078692226	1
0.42927155375009607	1.0857406231932856	0.887400466697603	1
1.0573617605115828	-2.9010741510170774	0.45486163799977286	1
-1.6034762020375741	0.4979977221714655	0.16595834279837127	-1
1.6121696832125663	0.5823803645162133	-0.34625890369315365	-1
-1.7179801633724445	0.764972912892429	0.9538875837339766	-1
0.8743406217223655	0.6910097665599569	-0.12066608873167135	-1
0.9786936804959897	-1.5881869594738383	-0.23607607217748547	1
1.3328315022418482	1.2420936167941439	-0.3817840543991191	-1
0.056183943367096194	1.4776592568758355	-1.435841486553885	1
-1.2396577428227924	0.8113430835052355	-0.6537067949030382	-1
-0.5401456906547647	0.4610800417893689	1.7185921398300235	1
1.3184680533556827	-2.2753442147346545	-0.5401391858038511	1
0.20868673068067528	-1.2062815336184873	-1.3578050259050773	-1
-0.1474412031931849	0.6724796364893272	0.8133422092597027	1
-0.061441404001821555	1.6889409237171655	-1.9818781698811592	1
-0.481748841872478	2.1047591762780278	-1.2985197124742893	1
-0.18274998527022415	-1.2280464695470912	0.993012906582538	-1
0.054886498584995315	0.6502283968602881	-0.6102695546281844	1
-0.9384494512915356	0.908363784372884	0.1343151466143506	-1
-0.3230254932618923	-0.8612951189576331	1.094786591409848	-1
1.6196136909105032	-0.4065869016508461	-0.2167826483811553	1
-0.20413394362675144	0.8969645207945084	-1.2974628011383964	1
-0.19266842825170316	-1.010098307814865	-0.7540721963291046	-1
-1.0107981978862186	-0.8646812875385832	0.35721953579924937	1
-1.2143119137519613	1.4706099554651466	-0.13963968851157454	-1
-1.391379328890814	1.008457673345953	-0.5384706364200239	-1
-0.6848510763737952	1.381404282283436	-2.1415664416220888	1
0.8273278021380653	-1.5794775431384172	-0.012958502376233041	1
0.6815776001138696	1.4726252816400855	-2.13458897007218	1
0.2353433306814041	0.883689259633433	0.9407992038097496	1
-0.35286847522736203	-1.4344131270487468	1.1902160686831917	-1
0.9504016598207606	-0.7506612533644166	1.4157399039089147	-1
-0.10052256232864341	-1.033628936546539	-0.578284072192011	-1
-1.1456979613770857	0.8885129660049153	0.45715408001413355	-1
1.1662605432472792	-0.32678902267369336	0.09240046059938889	1
1.5470800276309526	1.0863492854916454	-0.20448838001862324	-1
-0.8233953990947248	0.5509474751425972	-0.36696839326135167	-1
-0.41103841236248506	1.167754809713034	0.6639922964999242	1
1.7975574187466574	1.130877845515565	0.03741738495507576	-1
-0.254633296140404	-1.2837915411358496	-2.453509182069047	-1
-0.17111101984992888	-1.1986169988500188	-0.9487468303410284	-1
0.29643806877358847	0.2614503489524029	0.9503556437804627	1
1.8391570693277033	1.2611807704324611	0.3688094208532887	-1
-0.49027573053816814	-1.1045101807655329	-1.4089460500203375	-1
-0.3884692959070106	1.7467529614014599	-1.536617158609357	1
-0.01640532335953781	0.266766768043513	-1.5226542892923147	1
-0.8565425146264758	0.8629556416245729	-1.9723817851453675	1
-0.05752724498310368	-0.6597653674250246	1.1458456766147316	-1
-0.019674337525117075	-1.582286020061078	1.5630591179871107	-1
-0.8759756776792553	1.0428161242551857	0.36051223785581243	-1
-0.19827177537526308	0.26980645960624344	-0.9583881155232232	1
-0.17006375321386735	0.7157446157515694	-1.1360579080871578	1
-0.26133493426511367	-0.5018393898263303	1.2825091950443392	-1
-2.0812417507652374	1.260081293237322	0.8343528570568557	-1
0.0705990545476488	1.353590361221549	1.0023683241885661	1
-1.4106774007479785	0.826596609302737	-0.3939523513412889	-1
-0.8558263914265121	0.15985354542487903	1.3630511441275734	1
0.2129622435168174	-1.3294535228517301	1.1909183020643241	-1
0.9749527515587803	-1.0068825253607443	-0.11738649494827369	1
1.688250952116616	1.217751486662697	-0.2049686761858383	-1
0.40658777900585713	1.2093666430708643	-1.527700613232689	1
-0.4524076998618554	1.035535784136315	1.8418692930830831	1
-0.5680210109368181	-1.2059172881883455	-1.9594568057581823	-1
-0.15633251174835663	0.40689559948759463	-0.8285321488499998	1
-0.9489011678847388	-0.7794821125670506	0.6671482605650115	1
-0.12132801523778113	-1.3751883837642147	-1.0348853918613163	-1
0.25947349384776935	0.461073485213813	-0.8883696734171314	1
-1.0198945925039566	1.271386658109372	-0.495600114242216	-1
-0.651454157241746	-1.2881933839417572	0.13233245508639854	1
0.12933441916888805	1.2022826822901296	-1.2774666971631865	1
1.0491368711143514	1.2053224600540022	0.11051586989544374	-1
-1.1230729616975745	0.4051828094313443	0.22222610214733854	-1
-0.25847838771315446	-1.0619411535534036	-1.0577223234517843	-1
-2.0498714057359906	-1.5549059105538239	0.9428331166916181	1
-1.7817362357096753	0.5694265824629233	-0.09288109478023275	-1
-1.5642862345656814	-1.3838505681420987	0.9114837138011371	1
0.49394378759414703	0.19614426660651257	-0.061379833407923606	-1
1.4901697536631389	0.8676914229073868	0.16807699229727846	-1
0.2644434571563938	1.6522814862514867	0.9372636703445778	1
2.0514402084765115	-0.633825802140887	0.06861643477063388	1
2.484927911012271	-1.1325911882750417	-0.05207386338611784	1
-0.09272035524667667	-0.8113348005531696	1.641648446257866	-1
0.1796604184864967	-0.665426957521152	-1.2485926708446935	-1
0.2807843754033549	1.1906159747875076	-1.2410893654876123	1
-0.27420472100146	-2.132108963546239	1.3844639583761893	-1
-0.5554768939049851	-1.118933373357144	-1.8129025823976133	-1
-0.4224945967035491	2.0946103960284765	-1.5333941568877298	1
-1.2210130384372428	-1.4560529934525768	-0.16939136934101262	1
0.12913548074384698	-0.4072025482031095	0.6104871293109543	-1
1.3024187483172402	-0.8038678430282922	0.0017003535697304073	1
1.319282571723028	0.9662623712698031	-0.16890786440042097	-1
-0.2180426024958922	0.3624890887138993	1.2498819350065071	1
-1.827759000916264	-0.766255752607021	0.47668419084594604	1
0.2570456784418604	-0.6139738612384773	1.2305583418134363	-1
0.15531001883235762	-0.490158694798041	-1.6882597467754559	-1
0.15885447646997627	1.3538637181563236	-1.9833877861993578	1
1.1597505745976806	1.4143946896148685	-0.19111052390958283	-1
0.1948763102746573	-2.0131758736952436	2.488160576788551	-1
1.7653617297106046	-0.8743540113199091	-0.8300359083746441	1
1.0153966895067057	0.15109611275145848	-0.09689956143475048	-1
0.36579652979896826	0.425386694376475	1.0893848591959974	1
0.19414813857569266	-1.6182728276162313	0.6479119752467778	-1
-0.6746855054296663	0.6709357725683744	-0.09905773930000468	-1
-0.5518495022521148	0.5276487679182488	-1.39411523891286	1
-1.7055627233743547	-1.8124371634464458	0.44997645885682624	1
1.3980504771279072	-1.4484865472531245	-0.49766003955919463	1
-1.4639943280628767	2.107935978671008	0.3671014472749925	-1
-0.10017979387888552	-0.7451623766147382	0.6403608201489581	-1
0.31552683268125503	-0.9398785422617018	1.604444404828199	-1
1.8623927840351078	0.6186859196336609	-0.6252372524252006	-1
1.1996914571484425	-0.4731242420524699	0.2636993189457195	1
1.495472781342949	0.7379104620998004	0.700346784708066	-1
-0.09060223993130666	0.640806325861471	-1.266909482628285	1
0.198489626463661	0.5422991207272537	2.3666627734297756	1
2.6053114786732956	2.0592823408112726	-0.25993911007948534	-1
1.772175867610569	0.7998205058163959	-0.6430099238249976	-1
-0.45391207200096195	0.6702331969793958	-1.495625598337008	1
-0.2375378274561739	0.8705237758065444	-1.8069979892799202	1
0.17239693682104396	-0.9228040094822673	1.1953640113314283	-1
0.4415025621813513	-0.946258643485284	1.2642273051459973	-1
0.7799566154585489	-0.5079718727117457	-1.7507664790565851	-1
-0.23450063102455598	1.6836684362946155	-1.2018814647576583	1
1.4995831365452803	0.7768830637986497	-0.2163822347421244	-1
-0.32767160669386436	0.33194430947532383	0.6543541983261223	1
1.5448922797114988	0.7323463124041388	0.33111650376548346	-1
1.0531420120963073	1.2899380661707374	0.8123089411810371	-1
1.4598971279349353	0.5975422413704722	0.34279819601016615	-1
0.2200122344480162	-1.2520294667745109	-1.0670338702034379	-1
0.16213186704335647	1.2335496778588624	2.0375077952100304	1
0.6170495809516288	-0.5172456105759425	0.03122827886976954	1
0.46192235722441455	1.3891125973039165	1.149717565620312	1
1.035951385474928	1.0319566518842103	-0.12686314347466987	-1
-0.2984701559133463	-2.354805567993743	0.6526894819189955	-1
0.13686745148398102	-1.4643023215921627	-1.5642884481960566	-1
-0.6281040531979913	-1.133452265996268	-1.6442752510533756	-1
0.304631970678818	-1.1416061219476998	1.5263666084815446	-1
0.039035931649158494	0.4742874088120287	-2.7860909229214723	1
0.0030280017697064576	0.5615855003419179	0.6728524023817164	1
-0.35154825746375484	1.0443512205923002	0.9182875501102643	1
0.14430241673194996	-1.2635527111015044	-1.3846348465447083	-1
-1.1893330775899706	-1.0257685261069163	0.8301321060490574	1
0.23875002677226892	-0.9172585973486131	-0.926919989392515	-1
0.24453609372024807	0.5939902271562323	-0.8457045991092343	1
0.2607575002838768	-2.289600386134875	-1.914854060101832	-1
-0.8162765896301439	0.6819123280091072	1.6307270550475395	1
0.5714533440658199	1.0332356522271064	1.0643009688911558	1
-1.3659854010759778	-0.9097597763076198	-0.253039639892986	1
-0.21353234855706793	-0.8003455642156028	1.3029555408825297	-1
2.482532211269046	-0.23313629066848943	0.16750724031623518	1
-1.5322325376978323	-1.4180370575906516	-0.10782881089032988	1
-0.5009570513695498	0.4280916367107672	-1.268511355210393	1
1.9319615913896369	-1.1576510944182175	0.41671706511807466	1
-0.5320070034753906	1.571375568980752	-1.5860597464503985	1
0.15297577320667463	0.5039396958891506	-1.4217943390002443	1
-1.3930584589858483	-0.40290044226480765	-0.5834347943218791	1
0.6911594229311634	-0.7087008422262357	-1.7963010547454688	-1
0.2853031352729318	-0.8957682246592736	1.4262062014171297	-1
0.5641413371822869	-0.34293305618109216	-0.12621021180290817	1
1.1432827080841281	1.0292257279618016	-0.31235799123324137	-1
-0.40023313353121415	-0.8525714348991225	-1.5772472113332903	-1
0.7137845959859704	-1.5420732322036492	2.0745487186812106	-1
-2.230338887569809	0.6056452552253123	0.45339882274371424	-1
-0.5151035358763443	-1.204692614893391	0.004828615443936585	1
0.7790896130690425	-0.7208934299598403	0.012597803187378347	1
-0.12030801127337165	0.5420676329597639	-1.0933900547528086	1
-0.7685253017165273	0.9680227849196907	-1.5840826448296268	1
0.01956273612169909	1.2428059610582642	-0.9005210817140166	1
0.2949438102353618	1.0395829791843643	-2.5188937658792994	1
-0.15527662319393387	-0.41702161778931873	-0.7405523027293885	-1
-1.4147659081269484	-1.1694603018578524	-0.5381180338559501	1
-0.26013770862977137	-0.869188498441339	1.6657408700955312	-1
0.06783705697628047	1.011378362719588	-1.1375078980853333	1
-2.3608348005092528	-0.6967251543896679	0.7098661893544334	1
-1.1834165245267312	0.5549984061993579	-0.6022848377440522	-1
-1.0814954137408637	0.9868300321537498	0.22701377514093932	-1
-1.291289237831223	-0.9776540881062168	-0.31946690842702885	1
0.6565372857706443	-1.0477438666379824	-0.9070101536882597	-1
-0.13410294668106582	1.5072553970531355	0.8031481402297298	1
0.046488144754034046	0.8919140007141362	-1.8438298563535946	1
-1.8083439958853047	-0.7246071440067562	0.4430865365419875	1
1.2615587304704734	0.5025131503757584	0.03943439826198899	-1
0.20910554056489508	-0.8002460890792396	-2.2832637498284556	-1
0.09924022751322437	1.9300346066707794	-1.4318208355648383	1
-0.6260737522138957	1.1822466846832282	-1.2655822889869037	1
-0.4306120098804087	-1.1844261834984002	-1.2682294485717167	-1
-0.9270594708916232	-0.5291072048547354	-0.19161076669585841	1
1.9780461787911439	-0.8356050392348792	0.5353132045259248	1
0.9036937234715281	-0.8719839662240277	0.20684841698809842	1
-1.658829504574725	-1.326897798882595	-0.1326553669066384	1
0.16124371940838178	-1.1210232553896229	1.5404025223257245	-1
-1.411536328053642	-0.6321679886894982	-0.20805821556901824	1
-0.0385080025081882	-0.9566589237557296	1.070220507308925	-1
-0.1811336431816971	0.9653654959256992	1.4116089302260892	1
-1.276088724258046	1.0223195159822762	-0.4754575353840087	-1
-2.644502809065926	-0.49341442576866323	0.7806880900815143	1
0.9212667990879961	1.222368646320211	-0.25484009571117594	-1
-0.003552498628949102	-0.1628367958167252	-0.6854685414648656	-1
-0.1353917052346212	0.3960182369658504	-0.3353069831422053	1
-0.3700958811328907	-0.42893425765505244	-1.98479429216421	-1
-1.0422902386189679	-0.6329216421796287	-0.05227879364859465	1
-1.819188991990217	1.064542302929031	0.3098769721554173	-1
0.9135962568100044	1.0647663199475186	2.4464479692814867	1
-1.1547599051524366	-0.4566254994191364	0.047471265748213906	1
1.4421142403274807	-0.5519940652884229	0.28412100372503973	1
0.3456136480947636	-1.3074610524765793	1.3110107100047559	-1
-0.3249738649052943	-0.7571906211817501	-1.0017252488666673	-1
1.5429255729616234	1.6876057783532215	0.07677716263107291	-1
1.5032320697226327	-0.6824175488741573	0.2884055064498066	1
0.9507183141832476	-0.9584051988462516	1.634210400807919	-1
-0.6336263165159939	-1.076646340703333	-1.3546711960873712	-1
0.8255192495510282	-0.8659083255384146	-0.312526412570413	1
0.2851874615304558	-1.2119909759117793	1.2022123058907166	-1
0.920775951286557	-2.4360541977269445	0.3657721326088138	1
0.5582792669535876	1.01436759225445	-0.14739182889107638	-1
-0.17260144217379483	0.800223822136193	1.0406914005662304	1
-0.4919445740571507	0.45649804999182986	1.0969674720452607	1
1.6612183761312131	-0.5271744300295501	-0.1307537691328185	1
0.24239488521464106	1.636372439925271	-1.295908050611672	1
-0.3245190195424067	-0.7615514804836253	1.7737877623017697	-1
-0.1301372532981112	0.42939998896417947	-0.9085132175452814	1
0.8965159399699086	0.5557545102450276	0.08135044779528433	-1
0.6620048594686724	-1.1282480899920488	-0.2058502210047217	1
0.7101478813553077	0.8570504413792088	0.0782845858489049	-1
-0.3797584759611016	0.7044649317483902	1.1048721171824196	1
0.8646438264687089	-1.5701763986240653	-2.4179078199479522	-1
-0.21726398130062605	-0.777330026246082	-0.6786784629273771	-1
-0.02077634829805924	0.49434739423955576	0.6180955652014971	1
0.1026729565945908	-1.578960261821073	-0.7096935914858766	-1
-0.019562978797592827	-0.9698647443623408	2.188054958981651	-1
0.9357264654734572	1.1999427010327595	-0.2984539333913133	-1
-1.6499593020962402	0.5656561039352778	0.3185938018323714	-1
1.2279287340105125	0.7678602614854352	0.4932841479226851	-1
0.9897392949095686	-0.9578479364620414	-0.23264279976054134	1
0.07102518873307237	1.174809348261205	-0.9233289829682431	1
0.5590136634404023	2.1789208361630372	2.2661010017749446	1
0.5271984427637386	-0.45992854659255356	2.2426621071459345	-1
1.3022757186773073	-0.772867042414198	0.08282293218792713	1
-0.8251034461034158	1.1739147468932805	-2.0421864329654413	1
1.5562689171446538	-0.2801735283193656	0.6478609136526992	1
-1.3316832981332343	-1.4557632660480007	1.7469010963533234	-1
-0.839945194644802	1.161328960328435	-0.07016527650377345	-1
2.085591589273221	0.8655591832323447	0.14956509704760487	-1
0.19768844561411147	-0.45513660579051723	1.0016688553345456	-1
0.020475188300772267	0.686106942955245	-1.6031093949185604	1
0.9879135670833015	-0.4971079236675592	0.27553048402957375	1
-0.6022883724667509	0.9399026802308225	0.3657527851475903	-1
-1.0220152462236791	1.0944472424784644	0.20378426965433227	-1
0.8553497572697991	0.42002533253446306	-0.13065990169408764	-1
-0.4438397776558396	1.5127489697075291	-1.5447379347281163	1
0.21666168319688606	0.6372585140809748	-1.6046301709510418	1
0.09765864520707432	-1.9383824204553002	1.21013795778559	-1
0.2028520272687301	1.119435518088773	-0.7498728178651138	1
0.02792091147642263	1.544693481917948	-2.4936237744826784	1
1.4509439121007677	-0.8748330614469559	-0.5910966036427504	1
1.067732728168495	1.4624489684490918	-0.38254027031174975	-1
0.8488425759307922	0.8625538025940123	-0.005193899133107181	-1
-1.6059275841780725	-0.5554021337647188	-0.08800468063565381	1
0.5624044453080935	-1.0713970015628327	-0.1231991875877428	1
-0.3283999857447168	0.8823604486680063	-0.9904674655823671	1
-0.62006663691427	-0.9700305314238863	1.8204222948715867	-1
0.018150037860955443	-0.820204813394648	1.5323905513588478	-1
0.14715045603360022	1.0211999489239443	-0.8085406016086862	1
-1.6334673772429598	-2.274297178161779	-0.9405971341792925	1
1.7927454040216402	0.8560044648897538	-0.20670020665380295	-1
-0.11919759275839242	-1.0963396952975601	1.7352295491664393	-1
-1.9321271102460984	1.4101128397352338	-0.20339613784045119	-1
-0.018992167542139768	-0.5164628159594762	-0.4820835984413745	-1
-0.8669496791565593	-0.45619903854907967	-0.2935541106865958	1
-1.1718865755857866	1.3562270159201886	0.08107638769311737	-1
-0.03672937542086393	1.466610197148349	-1.0630290795858899	1
0.735421711132271	0.4888435318545777	-1.1219706264063514	1
0.3125186538374625	1.4518621384803467	1.3446722236341353	1
0.14778638971948097	0.7882262670311472	0.9105171932853795	1
-1.5761968171517189	-1.034766414853831	0.2769075052060113	1
0.27479700564282095	0.8827748556904921	-1.1897560913952603	1
0.44527241256541106	-0.7809990010864308	-1.6991916396721884	-1
-1.6171020651980965	0.9087846191698173	0.17410289048103186	-1
-0.6357623371084365	-0.4909028193852913	-2.758190495579653	-1
-2.3661724235314967	2.2155680925374237	-0.5778608434887936	-1
-0.02585228251136608	1.3173922713181194	-1.2360379057695323	1
-1.7433215722669069	-0.5040550988225106	0.07689720752456558	1
-0.21087640486192863	-0.3982947695780468	1.03530563839264	-1
-0.6680451054650365	-0.7385531561580087	2.025880678777188	-1
1.0731659532626365	-0.8001324925345081	0.4505382723103155	1
-0.2509390079934614	0.1953617664898788	-1.3927244255053175	1
-0.3981202176472324	-0.5426422781061278	-1.2022499026322786	-1
0.5999068891982713	-0.728465721292125	1.672229238337777	-1
2.262398448948976	-1.3731090471989307	1.2172494942320806	1
-0.6253729161411752	-0.9483256740525015	-0.07250730085753047	1
1.400374072675086	-0.7556050240834947	0.011781522452727688	1
-0.2656126802840506	1.6195851962922216	0.9878847222209451	1
0.2575046436107095	-1.134353341178153	-1.6786248647913753	-1
0.19824478229344267	0.5082122074189512	-0.7252758272680103	1
0.06718285023716444	0.08888777397403554	0.27892903710595646	1
-0.3073260966752655	0.3266100739199158	1.4908332779840212	1
-0.053888560581496714	0.5628009741684755	-2.112707587747022	1
-1.0857184266835165	-1.0430606923259693	-1.9996822442436297	-1
-0.2730818867292863	-0.5176864358214183	1.9714047572998188	-1
-0.0238522381615357	-0.8646696122079839	1.4424344373441091	-1
0.7245447340841791	1.8116517172967368	1.6444790159236833	1
-0.09892614908271825	0.6059522558784436	-1.3211076532592916	1
2.2160495867272156	-0.886500284188842	0.5954790610334874	1
-0.3625438698282138	-1.0920202484397368	0.7426076104498459	-1
-0.9168156587520692	0.53361891143739	0.5224810330669264	-1
0.8798348982849085	0.6421892464565886	0.13352215037072365	-1
-0.9826476208569797	0.4827955389471173	-0.08404767177262128	-1
-1.4223655578191443	1.559562273820133	-0.604114032454615	-1
0.29553642446404105	0.5781145456279432	-0.48539192436009193	1
0.045567955923371366	-1.1613592437802438	1.9050452887010025	-1
-0.12417893350605631	-1.4427484287402532	0.30045427707069	-1
-1.43858607447082	0.9120065734270977	0.012215015185512067	-1
2.6340216284717697e-05	0.47427968795493175	0.95408887650361	1
-1.4995832770363284	-0.7510373542942563	0.4854713105560471	1
-0.4060739884925714	1.7384755470356752	-2.118074767385192	1
-0.14175489690393805	-0.4264515522430181	-1.6476052750680399	-1
3.204299358100211	-1.6120118885736436	0.5987764898880678	1
1.6659500818245605	-1.2049724893968206	1.2351655827828987	1
-1.636152682843899	-1.828633472442676	0.0742034461123534	1
-0.6966027625157669	-0.12720678997584675	-0.15026513254692975	1
0.9825350212167328	-0.5292023894425097	0.07100378853552403	1
-0.9681728680966959	-1.9039590126046182	-1.9146485633998347	-1
0.018983119428602355	-1.1538183047248105	1.2588662470240823	-1
-1.6154273421972183	-0.48479448655086577	-0.6282611127857982	1
-1.271937018882056	1.25881866683979	-0.24662654384141425	-1
-0.45935720810171693	0.4102729103682363	1.2992064775031262	1
1.4563688819628384	-0.6631050768958683	0.168722951504485	1
1.7339578979448271	1.6436580471714117	0.4399759305871065	-1
1.5387019373635586	0.5512272410051546	0.3248597470584587	-1
0.05482220662993151	-0.6850267297686834	-1.8265923265868804	-1
-1.8120319369339901	1.3242165175918814	-1.0161169622254334	-1
0.07356031403298567	-1.580921979063799	1.6943934666529576	-1
-1.5737934577803	-2.8143433581173363	-1.458056353097583	1
-0.630131750411457	-0.6646942740178668	0.12943668040984926	1
-0.016924252696478823	1.006716293226179	-1.3705799974472817	1
-1.8112367421509878	-1.119626456113268	0.7817146413414201	1
-1.036258008856754	0.9883799584574675	0.3441306896068544	-1
-0.5017501779340491	-0.9827393689806574	-1.7782629441665483	-1
0.02815088573975244	1.1650884625198612	-2.4302371626508315	1
0.4660755047921365	-1.399117614695661	0.11147033266234613	1
1.571286086789856	-1.8359514217466992	-0.7334814506023313	1
-0.7881369552717454	-2.34380970821167	-2.2722508696113572	-1
0.9531071610005407	0.9293130078120753	0.1572032650039947	-1
0.10165316028152267	0.4489485774413899	1.3011744184491252	1
1.1606552699457457	0.9790771979267267	0.4142136009405699	-1
0.808751032406584	0.6457821994362757	-0.45066231477711594	-1
-0.2638460734023878	0.6637250580231975	1.2151310221724518	1
2.4249228569598436	-0.6472189379724796	-0.9551925180934167	1
0.20362964035234682	0.813886523043172	0.9475343128245536	1
1.761501138636745	-0.7890230659554164	0.2839593366296507	1
-0.1333572653445494	-1.052259735639073	-1.6511314576114307	-1
0.302052442422783	-0.3183749791897319	-0.8884860358672996	-1
0.5231800993492113	0.9309541347193421	1.4991264192592972	1
-0.7482883078568316	1.2284857091524084	1.9645629406092966	1
-0.4671528193559713	1.518247411248211	-1.9873754661843295	1
0.6395338443466141	0.981000276994546	1.933161885392216	1
-0.7619472141888816	-1.0441357544919159	-1.8278009291080353	-1
-0.9084118652420003	-0.6252092743250428	0.016477977123678527	1
-0.1168438265737941	-0.5628787831348215	2.179205923016011	-1
1.0054586089540922	-0.6414018501151488	-0.15333842896153027	1
-0.5742513351618682	-0.3395091624525337	0.1637188513192943	1
-0.7598336161790082	0.7678388827469563	1.3104940676078631	1
-2.5635618726988283	1.1833336906897716	-1.0840779440398125	-1
-0.4387984358328553	1.2865262034773601	1.994654549378306	1
-1.2610567819742156	0.6091246015180766	0.2908380454969517	-1
-2.0784246508441018	-0.6229484509851322	-0.27324944596066675	1
-1.7042552963186766	1.5280190814705072	0.1135942927524334	-1
0.4783346402963399	0.48088237982105986	1.0058318149254337	1
-0.6069194720511061	1.0205061090329437	-0.024503817497614964	-1
0.8860302243122272	0.9750407698519057	0.16718729508408442	-1
-1.6217506832728217	-1.0749829181979427	0.3056269532538065	1
0.8968509805821692	0.8459046399344787	-1.9763667492883799	1
0.16449286923034792	0.8457384537729841	1.8783349435007513	1
-1.768447867047607	0.6336636689173957	-0.4534562243676985	-1
-0.8222981680204637	0.889109140030433	0.15780657076655585	-1
0.2563901865635795	-0.8629331344531919	-1.4248482882540232	-1
-0.7771026830093685	0.5981783126547707	-0.25142841219131096	-1
1.752116504224224	-1.205153288827251	-0.010439568394166699	1
1.4363085977551995	-0.8413886929571629	-0.6676590821250507	1
-0.9880087245621083	0.5845771275222322	-0.008551319302227472	-1
1.7025589402104107	1.5428392389958898	-0.05812540065970202	-1
-0.6473425019651374	-0.9611417710686834	2.031946395326941	-1
-0.900831433616814	-0.7536767450988164	0.5014570297691251	1
0.211804219199006	1.3148630352533286	-1.5051293464570774	1
-0.24421925221975593	1.5664240225711596	-1.5986990996979866	1
-0.15550651235795834	-0.5479864887649043	1.0014370325432411	-1
2.240931610458714	-0.7108780252816299	0.15615464618780875	1
-0.4279173446383269	-1.6808784931979508	3.0244233036531423	-1
0.06095735155787466	-0.6514011957091127	-0.6800192880742254	-1
-1.0703799389687065	1.462791188318115	-1.8244148047003295	1
1.1626392015000853	1.050361151458761	0.11011552968103411	-1
0.2291462406322686	-1.2145717499805895	-1.7040550719939738	-1
-1.4805919866199653	1.3373784455529645	0.18829433428575237	-1
-0.3617887518729436	-0.3738063234966327	-1.990665249997369	-1
0.23614521592783305	-0.7546584546158388	0.9425334555903278	-1
2.4688084507996146	-0.9551305001830438	0.8658167124722967	1
-1.2183761672070101	0.6443733705235208	0.3162421059471756	-1
1.1768368902506094	-0.9561501932946055	0.44013751109210686	1
-0.0026508170872222327	1.6681386592363774	2.119694428220554	1
-0.013231426677547231	-0.28570481109635576	-1.0870367711733706	-1
1.269434710504709	1.391155300777738	-0.6366052181974226	-1
0.24249991553205852	1.3071953072643616	-1.5986572121612215	1
-1.115493222880193	-0.5748180358772557	-0.2494606840710973	1
-0.988372874293419	0.7650743908488887	0.0969776752268561	-1
-1.2650449864611841	-0.5850729455385261	-0.6537666388678529	1
-1.6979908862903643	2.3955046231814108	-0.3485547485177992	-1
-2.417876392648533	0.5025538556257197	-0.23812673874784235	-1
1.6256391160891412	-0.9053971181035916	1.0979163387666067	1
1.0163325614420848	0.6594183886923769	-0.5791935569991808	-1
-0.29657854469059547	0.2971461137450979	-0.5773642952986243	1
1.1535473717760767	0.10372904429719261	0.4409283287132792	-1
-0.33902222960570616	-0.815889134732185	-0.9885188820750843	-1
-0.14436211959902057	-0.4955305028267568	1.7466231601176454	-1
0.3833507921736017	-0.9381586679558597	1.5928323541584728	-1
-1.3193790461685717	-0.9581899691187227	-0.3484083956498534	1
-1.0258985996950207	0.8777851566174331	-0.45009957970498715	-1
-0.279029770372854	-0.7123076063067101	-1.203846332737447	-1
-0.6025187856450605	0.6537233684490124	-0.0023610216606753075	-1
-0.20744787009566223	1.4659045922395395	-1.474573685765245	1
0.013120618496397169	-1.1642050234782138	-1.2381277348961037	-1
-0.4862606441466502	0.6080205746364972	1.4456112514447	1
2.0310791425056918	1.8676106635725664	-0.6611854391683321	-1
2.1918881319367793	1.4782306554679978	0.46503985694215527	-1
-0.19311413920478554	-1.5646621955890485	0.6162661135343557	-1
-4.3340335162717665	1.663474658233273	1.2760978709659279	-1
0.7716533834850636	-0.8140069257809925	-0.10355248417405023	1
-0.9814485026686315	-0.5516418610087169	-0.1462926693597966	1
-0.06149356674192247	0.44135627023153723	0.6377812984384423	1
2.469179442275241	-1.8926931469591548	-0.10481769615981334	1
-1.3468174535455208	-1.6816873162165025	0.22953375264827286	1
1.0043366692372184	0.3032872039911225	0.45851864427188016	-1
-0.823081625263252	-2.098803166113319	-2.348241411657932	-1
0.07039352626562677	-0.6076091114677324	1.238140119499772	-1
0.4348130004105638	0.687286200146784	1.4193025510829438	1
-0.10046271856645204	1.5463896724483353	-2.4265127680628384	1
1.5030313241596513	-1.092454111061197	0.1498745876498123	1
0.02742538651695029	-0.7219108203587821	1.124822567615745	-1
0.3660658048815964	0.5550905168126844	1.8494811680356698	1
-2.6076412688333086	-1.2938437884257334	-0.5885774248418637	1
1.3384414519713097	0.9585234901210855	-0.2905237146888158	-1
-1.7787977954488507	0.9289667629831806	-0.018999009992724653	-1
-0.4941719902565764	-1.1655958925462642	1.1623901374073855	-1
1.4381977135574902	-1.2668235997920159	0.010868764845504236	1
-2.357427886306746	0.7830709211280505	-0.5828574315793791	-1
0.01410069920820174	0.7120671396786329	-1.0730018241812702	1
-0.15184169312368723	-1.054746031953873	2.265199537349448	-1
-0.4531114483874208	0.5434651820050824	-1.2739420918994648	1
1.4631938251237169	-0.8584979887992579	-0.17686742303350028	1
0.9908572016792182	-1.4371199165142547	-0.4749814487904378	1
-0.15730656032894808	0.84816303396616	0.70289600169602	1
0.1496305726547911	2.8186280159985873	1.8766783934670401	1
0.40028129113462346	-0.9917826387887007	1.3679309436344913	-1
1.6216597757693778	1.0086086313045166	-0.26293882852211875	-1
-0.3245064596583368	-1.1039366338593024	-1.561398305747176	-1
-0.24992957914904854	-1.3700364985741613	1.288708914310179	-1
-0.5368427370563953	0.6668839170873757	0.22161222547809067	-1
0.8450482698405021	-1.1564053049219505	0.261745189489661	1
-1.708771871919127	1.4736690563788635	-0.9001862012036908	-1
-0.3734262034639242	1.2656512269781979	-1.2842102043772268	1
1.400105328247874	-0.5703693464593037	-0.4338377768245882	1
0.02012717412333656	0.5897145451524531	0.5536347531077056	1
2.4553353484842546	1.5463898702341172	0.27895947435363294	-1
-0.2920402141225647	0.6681170575115208	1.67453125253535	1
-0.28071655054016104	-0.6455479520663474	1.5284066464734316	-1
0.3094733095164499	0.9948104662427509	-1.1757648075876406	1
0.15809946097685834	1.5060916661699335	-1.832967813485253	1
1.3022040430982484	1.7657841057188925	0.24099326104451244	-1
-2.8570300353634757	2.462519358786613	0.6704313145775517	-1
