-2.400186250867727	0.5381107787524883	0.056878044429983114	-1
1.3387445591441849	1.0061760137073728	0.1911161538485555	-1
-0.5921749308825749	1.5892439670681087	-0.7289827261881986	1
0.2712462569596753	2.5713087926335727	0.32365322357825066	1
-0.6011482748730019	1.9961235013453689	-0.5012262269298623	1
-1.249138587515372	0.6289859415094626	1.6589195418171785	-1
-0.9872226356605309	-1.0847045669503188	1.3527016278079782	1
-1.5288264277204981	1.1390013711185383	-1.4732293569005863	-1
0.02881503796528855	-1.8607525717440148	0.35066491002771705	-1
0.02228707213284079	-1.3547233760940436	0.17652825536163985	-1
1.1560596566922061	0.456936540846018	0.02121244509013054	-1
-1.4159535104725085	-1.1759985263209622	-0.1971160383080809	1
-0.7812373361104111	-1.059771231672933	-2.035033745293195	1
0.10521484463598972	-1.5950104566909977	-0.4937244960239506	-1
0.12455359165558029	1.6936694082438413	0.2619076308955874	1
0.11592494290955575	2.0120243537665896	-0.28690059753305824	1
0.7243874526382783	2.081960176148184	0.2732591075731489	1
-0.014164083894964914	-0.9859313324449387	-0.0389713633695728	-1
-0.12877569114395485	1.4064546531982496	2.187861756738085	-1
0.38464308443688	1.127852968338472	0.05925798393508361	1
-0.3346346751285793	-2.3230993108810023	1.0318781862926487	-1
0.8416130451543582	1.2503806797934243	-2.5597541738989626	-1
3.054352552645659	1.672846687688627	-0.2880073849891191	-1
0.2214101870690729	0.5116944395481036	1.2143809154557377	-1
-0.2738887955764346	2.533440542494671	-0.5044954117902307	1
0.4606452410606157	-1.8495391961295065	0.1423621853679002	-1
0.14859261099082466	-1.0000402831239767	0.1345818344978734	-1
-1.362952865168343	-0.8971598517876818	1.3980788066176775	1
-0.352490641724415	-0.4255865171127405	1.197634097886399	1
0.7908020235741796	-0.4758294485546388	-0.576823472510164	1
-0.030655801148823433	1.8974167933051262	0.10042941373561641	1
1.4585490443906544	-0.7130926667994625	-1.5389111711483656	1
1.1190834069958082	-0.6951680255279222	1.3964873120097963	1
-0.5646626285011149	-2.7435406573380567	0.022538955444517703	-1
-1.6281470001652079	-0.9576891935891996	0.7794912889661462	1
0.07310495318664947	0.9109227953853929	-0.021949434003259376	1
1.7768730810118674	0.8137185746558903	1.285216092715518	-1
0.4433249457582979	1.8578235887812053	0.09765002518027524	1
-1.7345148842471918	-0.5410651450503825	-0.9968059370364033	1
0.5357770883324834	-0.6819935685009223	-2.021900757741285	1
1.61439587743566	1.2666264795111062	0.023631592349174297	-1
-0.42004495216195237	-1.2419583166069281	-0.4802855006315383	-1
1.9378283403785002	1.5913760893980422	0.19080437672498843	-1
-0.26588824357343027	1.2565180740499233	0.2805796958076733	1
-0.6827805644499142	0.49447314811627463	0.8385905113746452	-1
0.5582500874124738	0.4369287410072552	0.04532624381171061	-1
1.70367468127291	0.6277350590449987	0.5036574663176284	-1
-0.4344886369612132	1.9011813725076896	0.2117150536151353	1
-0.1791223591417882	2.567126748363346	0.17700972107733232	1
0.8968889900521712	0.5848205157964256	-0.7737673986504244	-1
-2.153271142044979	1.5840909042583782	0.11645658545823585	-1
-1.347280037737636	-0.4979322831651164	0.677073845232165	1
0.12552076178771468	1.4958817602800916	0.21722004413198148	1
0.3220683251549954	0.5828981237908669	-0.771179420295828	-1
0.2743376376340924	-0.20762065817074504	0.9455429365378714	1
-0.8450326867709572	0.8180324925602127	-0.5170377033741362	-1
-0.10219834398602921	-2.1874928765462838	-0.3320900176793115	-1
-0.01293344202033915	-2.1709167557125455	-1.1639771032863542	-1
-0.6200599018757612	-2.2293914094299967	0.16243890049454351	-1
1.0581788645790697	1.2524976392694525	1.818172867287947	-1
-0.4964998261430769	2.058708865200399	-0.38520090401810547	1
0.7295832097392371	0.7569109115065382	1.454413509513285	-1
1.8864378233812809	-0.7167881949824433	-0.3445000519504593	1
1.8420264126206476	0.30021675642919365	1.566609922274274	-1
1.9115564249824286	-1.8429388349300155	0.3135493582664897	1
-1.6204974784572697	1.5802136325003076	-0.9968512110395364	-1
-0.7942880807331661	-0.3777380423286391	0.42175484138421027	1
-0.057706093887022136	0.8991950556086578	0.24168065147926143	1
-0.007601949438170411	1.2044659747279058	1.5277105619232116	-1
-1.3214222573452308	-1.2718121608728241	-1.892094440142056	1
-0.9272166752539661	-0.6736317155628275	0.49195525538723417	1
0.8880208531579208	-0.5600313911877154	0.19414921886428466	1
-0.12670477224433171	0.545074113897799	-1.1424569027717142	-1
1.1983191705480054	-0.6511548719484402	-0.1930624734004428	1
0.4482622756733182	1.7386396132886692	-2.0863098092480734	-1
-0.9325814889293146	2.68885790710754	-0.6525909008941246	1
0.14908503833115247	0.5924391433255123	0.049520523699023905	1
1.3574864736190257	-1.6257285757044766	-0.9026482090233361	1
0.07307735489792981	0.47744724502849245	1.1760180580142472	-1
0.8833932983787961	-1.975650229679549	-0.9430342686803574	-1
-0.24731232705596518	-1.6979845481187625	0.835926231930892	-1
0.7238783191881941	0.220642132807079	1.0408080872199237	-1
-0.27934941056504975	3.6862998048834204	1.553023287463725	1
-0.443679303557097	-2.007513683088041	-0.23990729005377964	-1
-0.01733246032373165	1.7778934787312513	0.31841840519634346	1
-1.392619110156873	0.6820767575502806	-1.224655837931055	-1
0.4389167262085256	-2.078611822864496	0.3646299134758282	-1
1.247089563927192	0.5008485531838666	-0.5633259883106421	-1
1.3990145888958907	-1.0163818124188688	0.6162245964115506	1
-0.4249626605399135	-2.062360129500961	-0.19467337929863637	-1
-0.9540645132127668	2.7812592227452098	-0.2813480425646907	1
-1.157451388479839	-0.49273459052648144	0.6607201683613882	1
-0.4510531851789614	0.6568366123452076	0.6950887396468708	-1
0.610091602373519	-0.5925668696167534	1.5993081161987477	1
1.1730035731543718	-1.0564974045785371	0.5057443321058939	1
-0.16109697071453188	0.9189626464752557	0.2299092387206661	1
2.0857702136490786	1.4132884273823512	0.4588233957407938	-1
0.24180773852978354	2.155002719467476	-0.31495293729366264	1
-1.3979924201716951	0.9891693330294076	-0.18242240470122106	-1
1.729273607677017	1.2648648113964744	1.1390595062509121	-1
0.07828643240222467	1.4418337888742687	0.7317655738634553	1
0.9933148407361383	-1.7232574873615185	-0.4282764493962885	-1
1.728606253514238	-0.8959740924258046	-0.6660308518836705	1
-0.12703421740637577	-1.002591666694468	-0.412420277070194	-1
-1.9134246483183839	-1.585951952333651	-1.647608616024536	1
-0.46757933325167356	0.6737536551820025	0.8830603473091421	-1
-0.2717018798474716	0.23575602142958269	-1.454113536355977	-1
-1.325561894822464	-0.37215183125125995	-0.5833117781264533	1
-1.5384415527152333	-0.31233218598645596	0.2764879768038279	1
0.7287298311643223	-1.8868286629732915	0.16896478897379733	-1
0.07888330378724392	0.6742001698487794	1.3364634259998376	-1
0.8425507431588785	0.9665749909731889	-1.014970137831103	-1
1.7837773399358712	1.0047134732164473	-0.04255829942326148	-1
1.9560809562489299	-0.8604431855614711	-1.1028896808814643	1
-0.5001209163238224	1.5661392079524932	0.1401533484362852	1
0.5413164085022848	0.6393473017899809	1.151693111802081	-1
-0.585738791768329	1.0067950086291733	-3.339060157576011	-1
0.7804728353869179	0.4259152725019497	0.25489062152333697	-1
-1.0999785001676357	0.9312252357459656	1.8234900027532541	-1
-0.06340755766040826	-1.654582620573552	0.08002394893351904	-1
0.6504835451988973	0.42956749381032966	1.3401767449186652	-1
0.05787959366607374	0.6825879862522196	-0.2499487343278584	1
-1.1286273457347937	-0.9198278904004495	-0.6533876967114037	1
0.4663190067332978	1.5995237346545115	0.8068276554251606	1
0.5353110393227244	1.722364534548049	-0.800987438456056	1
-0.7262953412684785	0.62647841333981	1.5854001953055565	-1
1.4119324749853774	1.18908034013811	0.184474856480919	-1
-0.6938592043380489	0.5768579583575513	-1.171535788069758	-1
1.85297066783236	-0.4115498791559625	0.8160802615807076	1
0.7524126620045685	-1.8489067407367363	0.19523646600654687	-1
0.19769229571323713	-0.9795682536863852	0.1210197152490939	-1
2.512781623770251	0.7557470847311822	-1.0493047511503613	-1
-0.21664621999194195	-1.844396482503926	-0.4154408750958844	-1
-0.5240551930470495	-1.3744524778347056	-1.3775492026788319	1
-0.44321855071280425	-0.3668641034960527	0.4992804126208161	1
-0.2973519652210965	-1.112201765638788	0.4339133752686369	-1
1.4739570997838016	-1.1553545500224045	0.41473505276574657	1
0.11304908670319469	0.7902347694365031	-0.0843837500518867	1
0.3033606829949417	1.355904648970362	0.08763819653815486	1
-0.11100469599193491	-2.9444094792517643	-0.29690045672984605	-1
0.9210510048879416	-1.9367917772094672	0.3037949026259148	-1
1.1580939850867282	-0.7624317337357955	-0.16846033601111282	1
0.282972453403528	3.125081580274511	0.02592984255108735	1
-0.2800347133681052	0.8700798830111834	-0.0540069944977529	1
-0.2993223302070693	1.5925015697678078	-0.7114331743444693	1
-0.22856260220916053	-0.9565564508939834	-1.8733336673304024	1
-0.7412300216323293	-0.9810199640640296	-1.194060429673458	1
-2.0698105057284852	0.8458510143676439	-0.5277646592702203	-1
1.206372265456487	3.895823584190516	-0.4260350164922739	1
-0.6677461774117083	-0.4566362690697239	1.1036535918733583	1
0.4719608230055801	0.8904089037335254	1.5975935380400685	-1
0.5757473088181786	-0.7568783720097987	0.618479824617531	1
-0.2740848218904205	0.8743950387083634	-1.3008012037401218	-1
0.534341428666897	1.439255002472251	-0.01824945324393142	1
-0.6753449927349545	1.9007733002686438	-0.07958916562796642	1
-1.255117824993901	3.464658994165637	-0.3095104286946721	1
0.6278428209659815	1.0270597436849864	-0.1421480413593389	1
-0.3882852632094338	2.253780652085781	-0.024204247876830086	1
1.0286356938795687	-1.1357714226544975	0.916989510410029	1
-0.20202524952973341	1.9779275224978337	-0.6150615819124207	1
-1.3657215579291524	-1.0569020048857687	0.4375571324110456	1
-0.3972703398447428	2.3066130110431557	0.15454533909563137	1
0.45878562292198394	-1.0000186821649029	-2.0009829555841767	1
-0.009350242990710791	-0.42646755333166636	1.0774710036471196	1
-0.8656924956706062	-0.6308996846417374	0.23401863342931573	1
-1.7557952423143193	-1.0550012811929765	0.9610114011713868	1
0.22031690237278287	-0.32235768267996034	0.9940548374636538	1
-1.2424681857888047	0.7746550189821864	0.2789601498959131	-1
-0.14338361900140922	-1.0928960828391996	0.16594027030075797	-1
0.11840238443453624	-2.4483410479669603	-0.6442034806619323	-1
1.548113754722064	0.9952138161886714	0.9987460149415122	-1
-1.554340782447823	0.536972897500984	-1.049642947682603	-1
-1.903579709796394	1.0526834354705146	-0.6081074914995225	-1
0.30815446682624326	1.7235965670164868	0.39062357003975023	1
-0.5270845383469956	-1.1414484656057167	-0.10030224497165774	-1
-1.1319414905869782	0.43792900861165934	0.23290108591004743	-1
-0.3144792650212649	-1.8366684557789572	0.026780274149412687	-1
0.4136823875465833	2.357144726846026	0.4698439758422378	1
0.07538449537446736	-0.9975012693772544	-0.15235614941723802	-1
-0.04123707642581656	2.7591930261112756	-0.46401084480754096	1
-0.5714775983058663	1.718862962787846	0.4720292892899778	1
0.41289746959468565	-1.0825962750140175	-0.026801119982632418	-1
1.693502639980962	-1.0429331681707557	-0.8787286457271833	1
-0.3600807804665182	-0.5836276769656824	-2.388203528732469	1
-2.0335083775784843	-1.2564635721996331	0.5854516762994695	1
-0.08923154407965121	1.0596076030858588	-1.224797597288501	-1
-1.6541187399283612	-0.5988983947619287	-0.5178199333033983	1
-2.1502961757190864	0.9371800813469024	0.743353000803504	-1
-0.4461601788409931	-1.7452077456379052	-0.6223747559730181	-1
-1.0243875542957577	-1.1130206361815114	1.491376868503954	1
0.3203162198696627	2.049634344131604	-0.5910890615554198	1
-0.23668804208249436	1.0024420489097778	-0.44487676882117805	1
0.334844884278791	-0.3225747700787695	-0.5401798401487906	1
0.3756160472929543	0.9776101341002731	-0.20552779273499322	1
-1.3119567569664101	-0.5886926365428915	0.43015576786668464	1
-1.2359303958330348	1.19163381402968	-1.6671059780673911	-1
-1.1104619381920031	0.7545854070287881	0.3175287601549348	-1
0.1537954240932996	-1.8278096803482975	-0.4482341051413159	-1
-1.5641659397781595	-0.29345941745846943	1.6187058669504866	1
-0.551051446567591	1.0366832525443634	2.947218819126037	-1
1.2690379328318668	0.756853858919962	-0.42962470809710807	-1
-0.44004155754027563	1.616682392825483	-0.7872945335401352	1
0.02008409187520504	0.7635396503273626	-1.0788875791459132	-1
1.210090471979714	-1.1817297844619847	-0.8879579146046069	1
-0.68956136413787	-0.43997072347577515	-0.4560147439137707	1
0.4136792274861001	1.3169739791818134	0.34901229498244746	1
-0.3676044451950431	-1.0632285838128044	-0.2000780904753261	-1
1.0489727810952203	-0.783949774942918	-0.8629298320146788	1
-0.46849236322534876	2.013296479451419	0.018266110176067826	1
1.469792389511131	0.7001160279508614	0.2220635580466635	-1
2.10668549365244	0.690056923005399	0.37129882399088127	-1
-0.5208518106161767	-0.21329857341935057	0.8534383339835028	1
1.12302694374023	-3.3510005065799824	1.1281842790830054	-1
-0.2474627659145278	-0.19463417647951153	0.6620748703852496	1
-0.8351785575140934	2.26092969741622	0.07117330698000517	1
0.01629140754988015	-0.7942855786443414	-0.010009620392381402	-1
-0.6689430907382422	-0.8734824836105581	-1.6647449330391109	1
0.18730799662561767	0.9514252525470606	-1.2885180563266827	-1
-0.31531446329101986	-0.6790332692334499	-1.1679413716314817	1
0.3124759124053007	-2.3961190175434033	-0.6525474131234361	-1
0.028268866704689484	1.8520187663516094	0.10890802545275663	1
-1.3020790592329872	1.0326254872600866	0.8840482209269395	-1
1.46265183995578	0.9917795265248218	1.0822008656547935	-1
0.6747447151366216	0.4751956885650406	0.9323189564375979	-1
1.082138363012853	1.0685884274459225	-1.4484532494144486	-1
0.20176655856541906	1.608960259199812	-0.1568907019548197	1
-1.441604298186112	0.46179790556243544	-0.3004015923801275	-1
-0.46566438795158693	0.3835706259386631	-0.16246660908761826	-1
-0.22394535952553785	1.1163660179216524	1.30697177062659	-1
0.714578343587867	-0.5773331211089509	-1.116213591272045	1
0.40161357329237063	-0.6451818839027994	0.9003740873626636	1
-0.8322140166867351	1.0745346566488836	-1.6497814752984965	-1
-1.4703731951894117	0.6622470823464323	0.14635472286271609	-1
0.3955497767521568	2.030152062705689	0.31106199273217855	1
-1.084961808606047	0.7766577468295108	-1.5789004466977528	-1
-1.4171068767920438	-1.394943662107874	1.0161595837006236	1
0.39705518221777947	-1.8960329777709093	0.12333077284464276	-1
0.042349304901610936	1.3989445050511538	0.39953300605526676	1
-1.2429207012618648	-0.293542354691584	-0.006068010688184321	1
0.08492410381700921	2.2999788353716277	0.4464169297152764	1
0.31827244123784637	1.2676086773983963	-2.212912620252492	-1
-2.948514028001737	-0.9010928454198533	2.5199929279148154	1
-2.0624475382371457	0.3203676040669674	-0.5251503839929594	-1
0.7615137905669425	-1.6509884763700198	0.14748425651332062	-1
0.3333934916062757	-1.8949033799789345	0.09770656976277059	-1
0.430618485675753	-1.092641746097822	-0.22304902021668457	-1
2.003752149755939	-0.8498211095384482	0.49292969252275837	1
-1.4249462559926884	-0.6929340828588693	-0.056698582556099976	1
0.5386683930523389	1.709881213583647	0.7608628354626994	1
1.1769728429279247	-0.07962149603900794	0.44319640827977047	1
-0.8872676109924287	0.4940396793759598	0.18569845957321984	-1
0.013656705723870972	2.218294144413577	0.5999667280620355	1
0.282959287119836	1.513893231117531	-0.6539164822716628	1
-0.01375987630202453	-0.7854754002605246	0.12685786268693983	-1
-0.19597532605529405	-1.99187422607353	0.019427592824715775	-1
-0.347701363417035	1.3064617699649759	-0.18760260424758965	1
1.1370090663029744	-0.3545855979957169	-0.9894680082640941	1
-1.4269417004629903	-1.462032963452863	-0.5115267363841778	1
0.9575940488612565	-2.0468836164020177	0.727812460262777	-1
-0.3453004775178315	-1.2571187190756368	0.41941241958367237	-1
0.2643871518442726	-1.3949033749540982	-0.14381656347070534	-1
0.000494691433168828	1.7642410689255776	-0.0961933718231276	1
-0.3531821785137578	-1.660566133138004	-0.011771330707883401	-1
-0.5201856875597746	1.5313829992468877	2.059796295829295	-1
0.12669444641357305	-0.849816806044014	1.0864280274307825	1
1.1677227151474472	-0.5926282760805291	0.8272104986418729	1
-1.546223731690655	-0.6441984146530656	0.09682934199946387	1
0.6337250310571069	-0.6303322758330951	1.4598591722487813	1
1.4951458147591354	0.9090129407625419	0.26056275707787435	-1
-1.8463873653630771	0.3737493947557576	-1.1500909274537379	-1
1.6441750519918727	-1.2669946586701217	1.755147792064123	1
0.5224713778757014	0.5444300865501482	0.7096487715084754	-1
-0.9474782186022754	-0.734285279111513	-1.432440981948487	1
-0.03362158611267695	0.7993485001768477	1.2156894801773535	-1
1.508413325738399	0.46329388620093326	0.5968473963793267	-1
-0.039321050884076635	0.6543354897136852	3.096682242569632	-1
0.5552735117148472	-0.49326509222020704	-1.356922195760122	1
0.38022361807934874	2.129223701871639	-0.5387366833730013	1
1.2445708442512886	-0.5855178436085913	0.9606646326117257	1
-0.12422013285074157	1.3379124636884392	-0.5568298869862366	1
-1.224307567818988	0.7334665458732244	0.44495072754939385	-1
0.6799157838707552	-1.9394528774025361	-0.16259194759472576	-1
-0.07240747543809585	2.1740030276717404	-0.985533288504477	1
-0.025885752831890204	-0.9728687901098549	0.1674015868807938	-1
-0.22988527440403816	2.0930087719380546	0.16773291624911793	1
-0.8122531460229198	-0.1470712207790167	0.14843437586890926	1
1.44559798115418	1.6195983137003322	-2.0808284665384025	-1
1.3399865958548904	0.9154745867907282	-0.6618991156311882	-1
-0.4097610535230513	0.6949256688851408	-1.1545260837199804	-1
0.45397506727602793	-3.073277882928914	0.3378181540708518	-1
0.9672077168661402	0.6105795036637468	-1.3412028337702964	-1
0.41001635102673806	-0.5628908189450054	1.8297813599912336	1
-0.7516533710567235	1.2973657336548166	-1.2151322855149844	-1
-0.22012003968146243	1.3379643717804273	0.35016299123264144	1
-0.3971040971167157	-0.42497525810773856	-0.8911481921046319	1
-1.4349156893083848	0.8731868431065183	-0.2772613470249257	-1
-1.8884212958301596	-1.8540975471600658	0.16735764248656382	1
-0.3033653981138885	-1.8448434139833367	0.2817976543220552	-1
1.490509376990599	-0.5392221336038476	-0.8070679490540775	1
-0.2494759132890624	0.8265078268854646	0.12202120900467779	1
0.24704424490001872	-2.1957256834119288	0.20108489318033437	-1
-0.1612126755906527	1.204917789257306	1.8782859325697516	-1
0.09046461224946964	1.3067476281045498	0.526806265330385	1
-0.3110591790833588	1.3947203475487688	-0.524308400780551	1
-0.41108820311283883	-4.158443208614473	-0.45627894562420385	-1
0.2483280660346676	-0.6847444424527837	1.3762643032037758	1
1.5855191955388017	1.1710593176916655	0.5353376549422552	-1
2.009712530723987	-0.28452093952115426	-0.5114961931885155	1
0.9304336984486552	0.42884973240014457	0.27906648811427254	-1
-1.016683298876362	0.47666080029451696	1.6347857138410635	-1
1.7899698679277483	-1.1535784637037432	2.330340221588299	1
0.5324332648392484	-0.7932322321446232	-1.2168137461878454	1
0.8935502268014958	0.30761426821409493	-0.40081870140097636	-1
0.36705593124247726	-2.046707387098616	-0.9014845002364855	-1
-0.4075787347651604	-0.9364670046901122	-1.7561924046667627	1
0.9477832557786683	-0.3311350063376483	-0.1399643074318818	1
0.15495018794492998	-1.9551769695576646	0.018184494468144328	-1
-0.1568147704003461	-2.0162513375431796	0.006658503721932933	-1
-0.7562095596430193	-0.4581765640464992	0.6602300934364406	1
-0.4556887329821018	1.6174653158417998	-0.28409853885445163	1
-0.3263527252329719	-0.8576146372128287	-0.10902160872175402	-1
-0.22682062763454522	-1.4930051731879546	-0.6538943840650955	-1
-0.44123851782598367	-3.5758422057614974	-0.023989495479042413	-1
1.0554172887709148	0.7723415585597602	-0.6329321739307188	-1
0.018339916327005237	1.5941725859891893	0.3356101620345284	1
-1.2515449524101938	2.2289956751018964	-0.6272425269553269	1
-0.4226644885852685	-0.6264224560165985	-1.0278490398646845	1
1.1623661155168126	-0.2847525217795427	-1.3812844052042723	1
-0.2636522345665132	0.5822177827036227	0.9382877144492907	-1
1.1652465374339311	0.8044089053988732	-2.85404405837118	-1
-1.3005907044786411	0.96159431679132	1.475919406495267	-1
-2.4164432305692642	-1.754223680573055	-0.31311593747705424	1
-0.31979329653401284	-1.0302105198440754	1.2626997112114164	1
0.7717800510853979	-0.18523078087568612	-0.21995342861607137	1
0.9206353887195071	0.6589820668085246	-0.9922093832521031	-1
-0.4588165360647639	0.2647689321730566	1.1027687082543316	-1
0.05728646817303898	1.3500151363440298	-0.22411462299875295	1
-0.32503218538867723	0.46487975079942745	0.9442300406935143	-1
0.4166604234296314	-1.9853271880977754	0.06922725690367913	-1
0.10924757784980366	0.49492118583922146	0.8234581444555211	-1
-1.5740478061983896	-0.6884030739207003	0.8487486329386252	1
-0.31600503746356223	0.9416156917806575	2.4528649330801353	-1
0.7203287863977905	0.5338359323202537	-0.5791269345072944	-1
-0.6855039833983834	-1.288975999859268	-0.4036993893797551	-1
0.6273193336767234	2.0156703379995338	0.20919738234775598	1
-1.5289196850612854	1.0223808921422008	-0.3798172231462889	-1
0.326715812460029	1.6375856663071873	0.5088301722184626	1
-0.3202198065648341	1.3930258104450586	-0.1426930053172325	1
1.3610982822574929	0.8327732483632864	0.8157974401809321	-1
-0.033518625379218396	-1.9764072259838696	-0.840183170800494	-1
-0.31274078552528456	-1.285489222064429	0.13365381782282268	-1
0.04679278473406284	-0.4461439214762334	-0.8609051776726206	1
0.2962113455854948	1.3387772771490725	-0.1490422993672901	1
-1.6769463978731154	0.9989952038936712	0.6858116853149246	-1
-0.10118493401606721	0.7952463006444697	-1.4956294570832616	-1
0.3337859080896922	1.33992303055216	0.04957977329075346	1
1.548488426221672	-1.0085224266569008	-1.2065351955560504	1
-0.3006790094947549	-0.8372829649263251	-0.0977088468449789	-1
-0.16104270324706732	0.37071971744087634	1.186943701559141	-1
-0.10966138186440735	-1.6614028358750699	-0.2911517140677345	-1
-2.3864835660581485	1.7532644017071002	-0.326557820166046	-1
-0.17747076093096625	-1.9360524824276668	0.56948850727195	-1
-1.1019283774376791	0.2241039796827344	-0.7612204196069841	-1
-0.44530001882367554	1.369661852332511	-1.974421742609508	-1
0.018363261332635654	-0.6261541202811548	0.2261770249158301	-1
-0.2097432819708862	-1.107766386374911	0.42973508500971047	-1
-1.3428582002847254	-0.577126119807312	0.8759669791284153	1
0.4017126570205031	-2.2329551701855275	0.5202496431336626	-1
0.3938052769814392	0.8026348469262516	1.8084786809505768	-1
0.7735914991556719	0.8839318337204786	0.9783125020035135	-1
1.1679575580710988	1.0749627079312092	0.10407024628272976	-1
-1.2365856116747969	-0.7329873133661761	-0.5438095192706947	1
-0.876338824233166	1.0089807386894767	-1.9411209246007382	-1
0.16594170888300228	1.6914277713160737	-0.6827075374564835	1
-0.13835456462010579	0.7552000211023571	-1.9595487609184528	-1
0.8855444872656799	0.6001204344056289	0.6070843237509201	-1
0.913557590606486	-1.0174684951335025	-1.9850325725587616	1
0.6080966925163551	-1.6831063347018167	0.1813955323066733	-1
-0.13364307557132923	-0.9443090168503817	0.2512869280300236	-1
-0.9908626496770895	-1.3791556333627633	1.2612610290836377	1
-0.2220736909916992	2.361085402334097	-0.15641580802655272	1
-0.12240532938128033	1.1964995275016406	-1.4677422036682837	-1
0.16959795669805366	-1.994952282947265	-0.11104328428441573	-1
-0.41590832678301254	2.5775935484677936	0.49406365361136473	1
-1.109261260359137	-0.5235741586241244	-0.13655614744074793	1
0.06554875368859985	1.2458899999984223	0.629386550601254	1
0.48756621123621635	0.2431646525870347	1.455145651802879	-1
-0.23215587221565592	-1.426188211056997	0.528674737011376	-1
-1.1177718478429013	-0.5599647993014035	0.3210785272492742	1
-0.7336667242147789	0.5753343813556715	0.4918359826998197	-1
-1.3312443562803258	-0.4831322620940364	-0.06844862514775811	1
-0.2210444325133375	-1.709170178562368	-0.36855667538802817	-1
0.3676592725290705	-1.8930470071369887	0.8476675065824278	-1
-0.17810656615441006	1.7693360745935867	-0.19490360996107203	1
0.7748595174785496	-0.4766346397887034	0.18298534605694147	1
0.028600681944681263	-2.4398908358710063	-0.005119572937760484	-1
1.1189920839891254	1.008917097631102	-0.6078640399388684	-1
-0.44923265368181914	0.8737461820595274	-1.6427360135478086	-1
0.6408412606458835	1.5863955118190807	0.2035432592143554	1
-0.19100835859706206	1.7757619257078496	-0.39576002500497937	1
0.5986212601692834	-1.1974370777182146	-0.3480214407092987	-1
-0.4604151814083604	2.5267983428592933	0.4561487303702467	1
1.1955776168348047	1.1840978942650249	0.6456803021655949	-1
-1.2655793578129215	-0.8486381191391893	0.8797484320526637	1
0.7259528647291438	0.29537998840062385	-0.20046355835984708	-1
-1.0541288239669553	-0.7018868880653941	-1.2212496627634506	1
-0.6190632553095358	2.2993321103326356	-0.2433600487184071	1
-0.42253241707150224	-1.264201174851351	-0.06295970625794278	-1
0.7986454573231981	1.5180634589431312	0.6347642502461395	1
-0.0822665916524174	-2.595424741434694	0.6143872366147171	-1
-1.4568855525016913	-0.37764640556087997	-1.4490851074818858	1
1.4682178702236768	0.8679114991303566	1.7290971746366701	-1
0.5413448408094989	-2.7582207233426264	-0.026455651623731487	-1
0.16712745215775313	-2.123156755327444	0.6615181738602548	-1
-2.7926314355878468	-0.8313590734471664	1.0533564278581957	1
0.45441436758298165	-1.9069932710137427	0.10074076879936134	-1
-0.5006710569847793	1.1592552087282502	-1.682164223105703	-1
-0.1447408829805595	0.858751312519612	0.1256226453970153	1
0.254593365361903	1.235810481120226	-0.10831140161922558	1
1.4325074110717952	-1.5450003841839426	1.6599188325053333	1
1.0761674703571873	-0.19679391071030133	-0.13616941726151965	1
-1.5913068644587318	-0.6002919636970306	0.4115709514848276	1
1.255822588446078	-0.5200213842464256	0.32421626904056017	1
1.1773514363610027	0.8941175080839608	-2.2762946633055616	-1
-0.44896899014542146	-1.2543817741896675	-0.1743282333357561	-1
-1.5949010610837107	-1.0978932444361547	-0.8386836072829777	1
0.6366619601198514	1.4744015499612784	-0.7507510663342534	1
0.5843394649567352	-0.32194091650729195	-0.553698382192393	1
0.34775543266848596	-1.4219787476566264	-0.5242920039513707	-1
-0.1840073687218778	1.6651189610115265	0.4481323625834701	1
-0.30167317829034457	-2.56640032620516	0.06940361742668993	-1
0.013410642467083102	0.6683085460571985	0.05076583226804768	1
-0.17037467719528487	-1.3943012660765393	-0.07467765729654387	-1
0.2508447529463972	1.0213224852891771	-0.20497694240518302	1
0.05281215375349444	-2.6467273864277026	0.34404216992495207	-1
-0.9765821978545303	-1.2977219107626514	0.8828583587984234	1
0.18709705456453707	-0.8383424830446476	-1.5965953999592157	1
-1.4108995978962557	-0.43258128066693	1.089897954911546	1
1.3967158992951303	-0.5563262851595877	-0.10219034570182745	1
2.4059758679595014	-1.9152063510448767	1.4546650794817984	1
-1.6895257529324763	-0.5467669460066888	-1.507612297325017	1
-0.15263702686891234	-1.791528616708594	0.12155086743365993	-1
-0.6592481683275286	2.7569340829444395	-0.3999730398224297	1
1.6179790224799193	-0.8690669427689612	-1.5970433082024202	1
-0.35579992148265854	0.21338621930085835	1.2380415141315106	-1
-0.3778435151749607	-1.5650284498008906	0.9119031044415733	-1
-0.6146422737695358	-0.21536292215325248	-1.5234049251205795	1
-0.5084491214762091	1.042196475989219	0.06110173715090276	1
-0.22954257009919865	0.746052214239249	0.09934450963643539	1
2.3256933931123327	-1.7151935200098831	-0.4319734980314491	1
-1.2432021883429998	-0.9925909443644338	-0.9395106765784645	1
-1.025215798097349	0.5719421362895765	-0.9793522851392948	-1
0.05347382233427052	-0.26285791927383334	0.4421387649259285	1
-0.15226338483702975	1.4399133363464194	0.539293532379748	1
-0.8545151834529019	-3.095015708237296	0.300420125643563	-1
-0.4046468057447829	2.924783911799217	-0.4729921972928919	1
-0.24391266648322737	-1.755800009257962	0.12404199500268308	-1
0.7498095333993143	-0.522901372844507	1.3189431569160304	1
-1.6668034576712352	0.4061507549267373	-0.06604213991670915	-1
-1.0308590907632469	-0.20566569592851014	0.5785317375408859	1
0.2523571970206902	2.3485162916867175	0.027821652914646795	1
0.288234767854139	0.5775516083592176	-1.4949300963577246	-1
-0.1544283306048088	1.0373716780235747	0.3368373339590785	1
0.35234675359738044	0.41388453629376204	-1.3494069787023122	-1
-1.040261305509764	-1.9439693746493631	-0.1563204542256198	-1
-0.8397987009944146	-1.826521194417985	0.14386344731829107	-1
0.45033125985949546	-1.076072099080837	1.3412307218744264	1
-0.5657538459523224	-1.5745874086067262	0.0976084394448978	-1
0.844054999632498	2.0188292948026314	0.13671254926212703	1
1.4479210168814995	-0.6222244752940154	1.6938027517319736	1
-0.1618225768279918	-1.6111373569564766	0.5373312829256568	-1
0.24768988447668436	0.22285765497594104	1.179595042707182	-1
-1.9284092398453643	0.9099407601170926	-0.7349065963126873	-1
0.4000056705533188	1.2961989920226893	0.10223503885558911	1
-0.6322304019144643	-0.6940654463825467	-0.5478881464391997	1
-0.9482697568652599	1.4042046552574243	-1.245602206178413	-1
-1.1696763027260006	0.9364112088615001	-2.1013475462590594	-1
1.0124888654314153	-0.8676767190236605	-0.1779069748505004	1
0.09329800398082039	-1.4746396195680347	-0.31286306395937546	-1
-0.45568246503097065	-0.3227503198864607	0.6513649347026047	1
0.006841910669330891	0.7419771321549631	0.056315214597048795	1
0.022672262302101596	-1.114283400631969	0.16366593024250448	-1
1.4679684794448367	0.3670451002988942	0.7973101519000553	-1
0.6441000336939227	0.5166967123500517	0.4652306590959673	-1
0.1868474459185915	0.47672695607588	0.9935529243645661	-1
0.31573624344701234	1.344954745123682	-0.03593842168897633	1
0.5117183498634433	0.7419787717938277	-0.8016531489192134	-1
-1.1204603862872264	-0.2084040226457368	-0.1577494331510996	1
-2.8575937022798072	-1.232332652703671	-0.3957069227236966	1
1.4247889237657936	-1.3016456096833133	-0.938597832131714	1
-0.7537868526371655	-0.30859637705469045	0.9563632196755816	1
-0.982517657467716	-0.7682458374447423	-1.4044770709959487	1
-0.6907134429095572	-1.7280693121909678	0.3357603771533284	-1
0.29754432875593745	-2.1440217038645772	-0.4005151437527289	-1
-0.44118751546809354	-1.5572932557538213	-0.12702767763963727	-1
-0.4452381227669049	0.8322027489006469	-1.2143842486948317	-1
1.3009922346682556	-0.41761238634963843	-0.9715323012332414	1
2.0815313124036923	0.9766853522914026	0.6216266194427623	-1
-0.5115623646602268	-2.091618610053929	-0.5555604127088637	-1
0.08198111435533344	1.0905656967444872	0.03376327655620759	1
-0.5805250268952329	0.7133755953535721	-1.5306316241478661	-1
0.8933881187607713	-0.6014073192493666	0.9725772203958949	1
-0.7525264786796947	-0.5398713752390687	-0.10837276894800377	1
1.2495841723920293	0.5682590507529162	0.5805953780227127	-1
-0.20266741762997953	1.1363294500080445	0.20141038393847943	1
0.13124828511308403	0.6444913683458906	1.3116071193543493	-1
-1.5743180558998822	-1.1923875960780754	1.302770101486254	1
0.45175838914710625	1.4560581844064318	-0.10945009013804825	1
-0.17571382308918992	0.8858250504350376	0.031408937070253294	1
-0.060293694736850735	-1.1108505986336505	-1.5041422985769632	1
-0.2684429997811142	-1.8334237707942336	0.7178643147730008	-1
1.1270796809067738	0.7205494027408883	-1.6332976260062333	-1
-1.5211457690330956	1.255507563271265	1.7137940004679741	-1
-0.1859517474078197	1.353404016195742	0.13691083453596217	1
0.5079267730256272	-0.9769768654859533	0.9336664855665409	1
-1.1472155799819184	-1.4954145140408361	1.9591160366978393	1
0.02014551278785806	1.879013675355921	0.0843569149923838	1
1.1896274001867013	1.029177419832602	0.02670329323129202	-1
0.9393699322555404	-0.8377864384931256	-1.5205427039291082	1
1.3297678573545362	-0.6446021468385844	-1.804928368006963	1
-1.19155950360602	-2.327843219036776	-0.2039067372261621	-1
0.28227909599470485	0.8251362755828974	1.2637544839294006	-1
1.2622626281827207	0.4295012892695221	0.0612231531918783	-1
-0.11329225223837232	1.3773106282379626	-0.1733443178459843	1
0.0028304727783072512	-1.301706355218639	-0.2096554497462817	-1
0.9073879420484142	0.5103170480080134	-0.23152801329217387	-1
-0.07289608908025026	-2.4023932893932525	-0.4733784569353725	-1
0.8119302787266651	2.632597854595044	0.7138819678181633	1
-1.5899337082389717	1.0672849832137066	-0.758449191094139	-1
0.7429766309759579	1.8216120424632642	0.039177982343521746	1
0.6611845889604803	0.8300435954142538	1.191937409423836	-1
-0.5629903728839435	-1.9211171778989575	-0.2617856398277487	-1
0.21810949190396167	-2.2079669730652838	-0.36188555076297035	-1
0.14354825564965118	-1.951460004118215	-0.1211312697425442	-1
0.8416488729994145	0.39484943241182824	-0.4527017730973213	-1
-1.6562387347038645	-0.6614442022477669	-0.19124264595223173	1
-0.2279542482766026	-0.3364933734848721	-0.9533090254275347	1
-2.223943123993744	-0.9014198020478199	1.8198124241240152	1
0.6235955427993525	-0.547381659453472	1.1753651845294442	1
-0.6011444126828365	-0.4442134304151301	1.0745475901206798	1
-1.894370159967032	1.7143346972893079	-0.9706866243450348	-1
-0.030865999784463444	2.2272638959197524	-0.030127875851138082	1
0.2419846790822302	0.5580104134691976	-1.419166205390347	-1
-0.21574795228006338	0.528362560908095	-0.05087522158250494	1
-0.2545803154139504	-0.8750854470603114	-0.18570141726146455	-1
-1.423244911265141	-0.48018932473493053	0.5287443173804558	1
-0.3336778543560046	1.127815051514071	-2.4423605624198044	-1
0.9169661838746901	-0.5385965242670144	-2.420693966041666	1
-0.7875726875017224	-0.49637199274404	-0.5486160941743335	1
-0.3395346430345134	1.1440153126095853	0.1514372241581713	1
-0.8527580950189867	-0.34412282814996914	-0.40839252915539126	1
0.2511136095216471	1.3915919097433362	2.3404151155213397	-1
1.2779604964062254	0.5151455980399005	0.3535964358798808	-1
-0.5866162503555771	-0.7318741629054136	-1.5667094850210797	1
1.3994798938444384	1.1901802338144767	0.06958049241665389	-1
-0.057522409815270785	1.5787990041409694	0.6173392538757051	1
0.2065601473711296	2.1207238549329874	0.2686812061291883	1
-0.017095786278837285	-1.0959717712076733	-0.5126048368944611	-1
-1.4994784742676044	-1.3037918375901445	1.6029235115006917	1
-1.106211178748816	1.0091545472450771	-1.285530396770801	-1
1.236173207868484	2.882475251287235	0.0025042469400327876	1
-0.9432141358828618	-1.7428781585312951	0.014501268101895379	-1
-0.7525711745852233	-0.6098824035772252	0.2248781536289467	1
1.0958574366736638	1.0331497884117982	0.7512143265753493	-1
0.34170369133436534	0.9548079776078648	1.442909120451147	-1
-0.32299358625136454	2.1125095355795227	-0.2702111252745802	1
-1.2030081801233772	0.47688185013714596	0.20416104978627297	-1
-0.047558103983091	1.0563314525154626	0.5318531411612484	1
1.9863709554889024	0.5513014129681018	-1.4674312522423894	-1
-1.0841488509375496	-1.2117112042038634	-1.4432797850744334	1
-0.47303208049305906	-1.4176805229874727	-0.16223427246647978	-1
-1.2248073219531674	-0.5212597054060952	0.43868555260069875	1
-1.5542665950125045	0.8104530787887619	0.43560549571745827	-1
0.04421373468677368	-0.7338115022168151	-0.20859040377312438	-1
0.5799425942646255	-2.2066931368830103	-0.946294494101916	-1
-0.41922887421855926	-0.6272798307007442	-2.1338407939105486	1
-0.4205734485525368	-0.3888446597263767	-1.1314419427920719	1
-0.24677552421264248	-0.49341026317745956	1.4198240194519591	1
0.7993243041522642	-0.5593966404599711	0.42279786628480065	1
-0.042679654068188785	2.0230196292767206	-0.2108097644757519	1
-1.3022829515960144	0.8353432790872285	0.72413046959857	-1
-0.9110542753035628	-0.9773315783757996	1.595962015260715	1
0.4898729426259186	-0.5836479111353373	-1.2066896160289278	1
-2.291116322313078	0.258069260372633	-0.902251074346694	-1
-0.09494982195890396	0.7600572887825754	-0.2832977218314641	1
-0.012620142370584259	1.2417283533048669	-0.03636969302695316	1
-0.14810088293851428	-0.9215750590103525	0.006367391168879512	-1
0.36691243623518	-1.1325053889534045	-0.1373220690395729	-1
2.769566724067298	-0.9744103681722122	-0.557836708898844	1
-0.10374436841517631	-0.8293688500082423	-0.06644046213301223	-1
0.17462195454728213	0.5052430856221621	-2.2123797778864307	-1
0.8886420902749017	1.308682053906321	-1.2884117004571707	-1
-1.554690626356797	-0.9388227787365866	0.3918016716970518	1
0.9326481928254119	-0.7690849181399452	0.3001135609023998	1
-1.2519126768351645	1.3210444768398233	1.9352229302822974	-1
-0.8690720044111325	-0.5983605764955154	-0.5950229150490286	1
1.3563096999288033	0.4853687207838972	0.4586804393577231	-1
0.2839919903534019	2.2316201525943025	1.031158842716546	1
-0.7411447035682872	0.9653046716025676	-2.1853552553604167	-1
-2.272902567596861	1.556656322569508	-0.1107564142756991	-1
-1.4977117118683332	0.3624382329936183	-0.7253928106791233	-1
-1.6922831200826942	-0.5965021622401093	-0.028550889525404185	1
-1.2539077445659308	-0.9034110499780937	0.7476377840642009	1
-0.46212955350076934	1.5552355433727245	-0.16525431431259985	1
-0.5918867985946029	-0.48031101070971477	-0.3826035201866802	1
-0.16748957970966982	0.917877445596494	-0.36670787429506885	1
1.1358730146209572	-0.5517551863998111	0.2205467868597386	1
-0.47715990307028566	0.41630024011149463	-0.9319059656751197	-1
1.1642355519147847	-0.7610903080351091	-0.3532586865831474	1
-0.3526897154466948	1.8894596014146814	-0.3030465195378686	1
0.19994326632781273	0.7078139166085008	-1.357808297959356	-1
-0.34148333556330907	-1.5125455890075044	0.3505249433727219	-1
-0.7499457272540054	-2.164404511645042	0.07881557198890705	-1
-0.1791535042722671	-1.5287918270230296	0.6385547689135945	-1
-0.4140048862097705	1.665239350730758	-0.5144280251175507	1
-0.5096435916409154	0.3042834158885603	0.9565052846460086	-1
0.09103290125889783	-1.1849876674859245	-0.17519565250464808	-1
-0.28177609929998476	-2.1038983624610403	0.04814411754249798	-1
-0.8289348893555609	0.3676890922958589	-1.6109234361002622	-1
2.878106084629145	0.7253626984534315	0.25366481899901694	-1
1.3341177074297765	0.6653100274186734	-1.2907076513859668	-1
0.48433460643989296	1.5625956424901717	0.051385350109530915	1
1.4165745475320244	-1.4704455730479538	1.0464717151365048	1
-0.616583754952337	2.113353632085006	0.394551294592303	1
1.423362969290299	-0.9944158789215582	-0.5984799122969732	1
0.5355592200785844	0.3831989557105703	1.224564368849012	-1
-0.14676482967305285	-1.1425265367567645	0.7018092251928619	-1
-0.2563917370964924	-1.4665281084678785	0.6190745240291208	-1
1.2902842574402063	0.721751566617507	-0.8963551228095796	-1
0.24025420947509338	-0.7190562309863021	-1.4891147747197513	1
-2.153355486266159	0.6294006924869784	1.2054545239568357	-1
0.44487328007168847	-1.004318491958505	1.1731935983621626	1
-1.1178474417483526	0.4463502019616016	0.8341108716901972	-1
-0.2992647274221509	1.6431882728593739	0.6866593599141866	1
-1.9743668395529506	-0.7012623001240771	0.7291588521493222	1
1.593885330992066	-0.7871478429727562	1.5460434234661116	1
-1.6226530994190123	0.8476506060511229	-0.4232201487371272	-1
0.7752964982368783	0.9536686572292649	1.5269333593243977	-1
1.160186122668872	-0.4548514024364135	0.9183830042297846	1
0.0854305063052081	0.7321198412483242	-0.36153729150572195	1
0.5163897023288969	-1.7080901918085052	0.815959349787525	-1
1.597796348913954	-0.6417711835051481	-0.3121185298789676	1
-0.6376394999204685	-2.870379450958595	0.4387232208480336	-1
-1.4989101135974516	0.6588545663294336	-0.12489876018422374	-1
-0.6436627912984623	-1.6896551450436634	-0.5012953200660364	-1
1.8870144070296195	-0.49171755868821787	-0.5338485742961063	1
-0.3574772479656452	0.747587361420364	1.797842110664381	-1
-0.16425780178816074	0.842783067007046	-0.07717306016198347	1
0.5697760098647631	2.6982865167844334	-0.7108772964027019	1
0.13098057111826406	1.3196379879431328	0.2637294792863015	1
-0.030855087833581325	-1.1432246423248822	0.11614440355703087	-1
-1.3070558605022482	0.9611723605832622	-0.9875012546864523	-1
1.4956441075515547	0.7982202898992224	0.9447408690661275	-1
-0.10933192032539225	-1.1549276686864203	-0.3168829619627261	-1
0.493754903340545	1.4212459616571183	0.10714160693099106	1
0.3299249369481137	2.466276330697033	0.004237813613188934	1
-0.04765578225272046	2.101795970888029	-0.6952165772106398	1
-0.7054950443443855	0.9395981374519455	1.4993623546673136	-1
0.2341074896965068	2.340773221007022	-0.45612967724304393	1
-0.2016717228617304	-1.9555577114941372	0.09362839389575375	-1
-0.15271025312580844	0.9619555316366221	1.0455418927151907	-1
0.7222792791640389	-0.42137021759885374	-0.566724170182197	1
0.2169633590956709	-1.3123376773983315	-0.6025333998631334	-1
-1.7843391450975283	-0.7957860033006895	-0.051984216049244594	1
-0.08903987107591964	1.3500768134788572	-0.34672132879976103	1
-1.5867725612034835	-1.2492182952297957	-2.1381953200877377	1
-0.26356152620137946	2.438306978523128	1.0071759578161994	1
-0.9449671220742104	-0.4734926854039902	0.03657675946737377	1
1.1423936755345239	2.000684171218211	0.35685445393546966	1
-0.16487933326475857	-1.2886349519834406	-0.007264454220225168	-1
-0.6555400418490445	0.12851007484089202	0.6192085705819683	-1
2.0953411017448462	0.4979116962812528	-0.8120425660921278	-1
1.1422130122635785	2.418131147201939	0.7527979356179033	1
-0.2532057999569907	-1.3042351259432645	-0.33782747937530444	-1
-0.5795529909186476	2.5054374976435927	-0.9555956788613775	1
1.6825859768453026	-1.0031998494803782	0.049610283302033244	1
1.2917191682329405	0.44001374109584845	-0.07006905962598986	-1
-0.41457760778287495	-0.5315728136831286	-1.6830382361621608	1
1.1839379432040757	-0.6311269840270634	-2.910282894689991	1
-0.3746518947407369	-1.1943235147074407	-1.86670505032735	1
-0.11405208139143544	-1.4482092108904607	-0.40758825769455664	-1
-1.0487618552454874	0.6562054485643678	0.48148059791334297	-1
-0.303914733160609	-2.0262328132206644	-0.7738055507881256	-1
0.5410370109008513	-0.2743246636487443	-0.9612973689702082	1
-0.24881771944227182	0.9733992321249565	-0.0536794158598006	1
0.41064526523210465	0.37565561279409665	1.4278458066181177	-1
0.557018764300666	-1.8836478531914296	-0.2652558637506738	-1
0.9437189449397908	-0.5559693587297528	0.3962230557671431	1
-0.3644189847239453	0.9592001028630883	0.48295402129779985	1
0.19184768296279064	1.8588321998974906	0.4598146862920806	1
-1.7414186126994406	-0.5710436219624406	0.159518023429139	1
-0.7284036608662499	-0.7231224611860861	0.7461905679479677	1
0.1314274471384572	-1.4758246735626757	-0.6144412536834334	-1
0.5573192896182307	0.7922073976328248	-1.2610529100157448	-1
0.25311980483145796	-1.2103358827005586	-0.4800887939249207	-1
-1.9909294552104144	-1.2695398310213117	-0.22097814418407713	1
-0.8140872920022111	0.17134776727324974	-0.3225504701178732	-1
0.752569594923877	0.9762585911116508	1.2192562506235207	-1
0.42040474112985743	1.044060154964211	0.148516497057011	1
0.11489250053226437	1.102794202698197	-0.15486593885005953	1
0.23462004734126563	-2.0332056922493997	-0.0026618453077826326	-1
1.0411785741368884	-1.7249272501621231	-2.626965583989813	1
-0.07838244941654843	1.8750845576756872	-0.28183038736981153	1
-2.3562961070183164	1.1095730257721035	0.3311394551817614	-1
-0.017924646163208335	0.34218189625094725	-0.8474074401715503	-1
0.40263473212630657	1.9891277637917733	-0.5515724898112867	1
0.42756187338636586	1.291152369044076	0.21889085639028952	1
-1.767518391840467	0.21859525280049344	0.8521162642647179	-1
-1.1813624159811213	-0.8083732453291376	-1.3607129346942533	1
0.3300506173720164	-0.7989774919599129	1.0657329152285582	1
-0.7751716941980328	-1.5388783662289265	0.01849072086803295	-1
0.488503612356602	1.984526067108455	-0.07599684061452942	1
-0.081574487566859	2.112787351080563	0.03471923569403675	1
-0.7307859305014154	-1.7020082302678312	0.05496499127425905	-1
-1.8621469631299332	1.0822276317973027	-1.320615779304088	-1
0.22784890506383726	-1.2782048180936518	-0.1787272536685587	-1
0.8206610351588156	0.41412576781108457	-0.5413947244236407	-1
-0.22017155805726035	-1.3914374454848024	-0.3329287617368579	-1
-0.8802863649205369	0.8341956550129037	-1.3773840828917738	-1
1.246048580967118	-0.8691019214365708	-0.9745210667634929	1
0.847508076514047	-0.5501127319870489	-1.1920505783371749	1
0.4599866227989329	1.8978109172405202	-0.6423382642804718	1
0.16259267231983787	1.7063829512121764	0.37449815144772447	1
-0.490294100863475	-3.1140647384464595	-0.2670408526388392	-1
1.1725434528607712	0.40053239471716334	-0.19939810920597056	-1
0.7261924876582044	-2.6975669292340227	0.04004704724295702	-1
-0.449649514475372	1.610809949745577	-0.20565931755386346	1
0.15417820315468814	0.9003640689534612	-0.8542282929188428	-1
0.19629259666553983	-1.1763324867224512	0.02621840729360411	-1
0.3526631472552186	-0.8619024686059675	0.22219169264079222	-1
-1.1724820444667157	-2.139798906502596	-0.3684175773001761	-1
-0.20489979425593574	1.139205135337965	0.20314500299273722	1
0.7638364805446042	1.9616582590952527	0.6935634994886777	1
0.822913929162337	-0.8315843060266813	1.7550953611962758	1
-0.6925189949260507	-1.9764174220542043	0.30746660091580563	-1
-0.531828940617115	1.4524689287573616	0.023867116162787652	1
1.4160234990668485	1.1813509017633572	0.5396577144316986	-1
1.7286999008917576	0.8142045398411846	-0.29784240230567244	-1
0.671973849080806	0.9000011062100515	1.4999088547258352	-1
0.40553610918459077	1.774814547692908	1.0827820103692696	1
0.25438571186780656	0.773538782272923	0.020377199653789063	1
-1.1932833377575307	-0.4423747415995252	0.6155389038384302	1
-0.6953876289996893	2.2981923564907882	0.2757402307154029	1
-0.1292312145101665	-1.1847011518520234	-0.2425620339474498	-1
0.7025566838556655	0.34330090656322704	1.1681060893606774	-1
0.15915364983046584	-1.3067983897095699	0.10401564982646294	-1
-0.46679065290189714	1.642404247932255	0.5538543354071715	1
0.6775708652514186	1.9286491123500331	-0.3789380317718764	1
-0.06286676775543669	-0.501346760507729	1.111165105974703	1
0.12748614808028225	1.3966807331511175	0.3089034194648451	1
-0.8308511741038948	0.9148628596138972	-1.3694008589847517	-1
0.23767734457794482	-1.5235162961726827	0.08320602813994162	-1
-1.1553340968696286	-3.1293417731892053	0.9632846728395061	-1
0.17928641484572372	-1.0354613811485895	-0.08396686182687114	-1
0.8324693550516193	1.2120557794837152	-2.11028818098109	-1
-1.108967684710705	-1.1280540751805423	-1.9915447504881911	1
0.791206389926721	0.5371323267822221	0.7124518959847771	-1
0.1635797987303056	0.9294246306763185	-0.2143488000973377	1
0.37179599911305045	-2.0201176812564015	-0.6166357564250673	-1
-0.49253908038067196	2.409239367223247	0.9352458699740878	1
-0.1975215212562561	0.5233353313309348	1.823323242040923	-1
0.02775324005332344	1.340933977542071	0.2507580472027235	1
-0.9560591725243643	0.5392354714078825	1.2993009607494947	-1
-1.6914547123023476	1.016963044164948	1.4651342469387068	-1
-0.6628642195279861	0.9235999850642227	1.3003698825834427	-1
-0.9365055677342982	-0.635817358436801	0.6016540982600511	1
1.095593990454997	-0.7694712435909115	-0.34513251805263767	1
-0.5260906999480642	-2.666798498058253	-0.4227240207334971	-1
-0.3494515068198012	-2.6039153175715466	-0.21379942806705432	-1
0.4244216018796186	1.0035179413280293	-0.327150425284669	1
-2.5635948088362284	-1.2334981584227984	0.19826080265786714	1
0.4479961092664527	2.7210531304687913	-0.671406813812338	1
1.017932096412081	-2.0838394672003906	-0.38677887315941367	-1
-1.5347141431644402	-0.6075612102970752	0.6421882126038718	1
-0.8950964280134341	0.8694692115653494	2.0356510317590617	-1
-1.0718116419706973	-0.6256787008653855	1.142321580827267	1
0.9325175438364032	1.7657483139037535	-0.05083058222967042	1
-1.796419922666958	0.5700853090872935	-1.0912971970481768	-1
-2.209482370465025	1.6480518447355927	1.3623987540981937	-1
-0.5687869851527004	-1.6854529876430708	-0.13135927361208388	-1
1.986188832859285	-1.3600462293548254	-0.012378968663339408	1
1.7502253858365624	0.7590221308931053	-0.027836621186719215	-1
0.2934658946696869	-1.327947610308604	0.6056948262103578	-1
