0.9322683995803809	0.08985665326182751	-1.2820777484179517	-1
-0.39347019843411557	1.2652789711982506	-1.2480135971895974	1
-1.2217644401323635	0.22721663479284035	0.9922614690647331	1
0.2855817827605042	-1.4943033270516697	-0.3400070224390623	1
-0.23268006574657166	1.0664229009384978	-0.9033018477584769	1
-0.12123633732717064	0.6367678738410099	0.4498157696485845	-1
-0.14766427227384946	-0.5104780211800277	-0.7009072986038367	1
-1.487230122895818	-0.5947881012009978	-1.3526007315313506	-1
-0.25560041960152985	-0.9123073955071676	-1.3335320809743347	1
-0.34237221431006076	-1.6793269281931407	0.9759593070008586	-1
0.9876510764281662	-1.6693514263395688	1.1100823440567404	-1
-1.2706692917856641	-0.021555488584145636	1.448583901778961	1
-0.21148175338160535	1.1629149418179539	-0.616751994541622	1
1.0848272861908042	-0.1630458372964556	0.6981121763608487	1
-1.223962972639217	-0.17230845259986116	1.2044901743877032	1
1.1600197400635481	0.22174297296845863	-0.4046517045790948	-1
-0.08715913617456163	-1.6138765199493301	-1.3232971707722394	1
0.08646000904523066	-0.8365816015782548	1.098854373526295	-1
-0.4325803041779983	-1.4997190332909545	-1.121706892131545	1
-0.10171941162262024	1.7319845452423774	-1.573787396859066	1
-1.2264289423278334	-0.07490870773832048	1.1323485358077465	1
-0.2596642135236579	-1.4489726815138877	-1.06620979235401	1
-1.5028294855012005	-0.0062584631084542435	0.4679447120557906	1
-2.448983246084218	-1.212048176679902	-1.2959178530101572	-1
-0.2199656065861264	-0.759494897213354	1.2869353312950018	-1
1.4099459541111692	-0.09765587910408274	-0.991426757426631	-1
-0.08924750866912012	-0.9129648743143908	1.9998087357954564	-1
-0.09221662336942431	-1.2686440827079433	1.104279505149444	-1
-0.8612916476308077	2.3680832419287876	1.5282651999523829	-1
-0.05490359294846042	0.7849893676999483	0.5342333864385402	-1
1.607982652886239	0.1677885640441206	-1.1800753039831218	-1
-0.5765506277883407	-1.2409490286689244	1.0830942682878584	-1
-0.5051516353280711	2.4788542370774955	1.3260963093774516	-1
-0.09980952586200631	-0.9548330277648254	-0.8080162359846474	1
0.5978693410293798	-0.3362932589832257	-0.4261270124842074	-1
-0.7110026247913321	-0.12650479555094155	-0.449681647610376	-1
-0.10758540164425004	1.4968992219825503	-0.9464403358252798	1
0.9498700675932457	-1.4768529213905188	-2.2747264919204615	1
1.434356843064477	-0.01084398878428125	-0.669677808860959	-1
-1.3419897428661662	-0.23572915337070302	-0.8005832329040289	-1
0.007351322603626098	-1.203067725241426	1.2306307350620709	-1
1.0286486475937633	-0.18689607484381204	-0.7818655722747646	-1
-0.2659006908019789	1.011799064658974	-2.1836361357061547	1
1.7246352871067616	-0.8064856170477944	1.155629104697906	1
-1.7589388524970433	-1.3232493882664476	-0.55304332880558	-1
-0.44151629722652636	1.9958366823364706	-0.6864126380411805	1
-1.5123869169981345	0.370370008981954	-1.025905792552694	-1
0.58630444000164	0.17405264053699313	-0.7460707247105327	-1
-0.18932349362073136	-1.179932953270345	0.3766091446688654	-1
1.30879036639147	0.36651416147306215	0.8420390712680116	1
-0.6676767350612663	-0.32349848251277535	0.6127163392745719	1
-0.17581472704707687	1.5770455241428374	-1.1572834062701078	1
0.6255127439770871	1.4185862067853763	1.464872345755284	-1
-0.6243487720752974	-2.1500655100872286	-1.8913418866280787	1
1.1690233822725107	0.0242469232151793	1.0462656971188027	1
0.6294930127550831	-0.11053178803675795	0.763570896450226	1
-0.05778659190905229	-1.5528925187344822	-1.6315935799641659	1
-1.2155621652309474	0.05591904029290046	-0.47865745696067474	-1
0.8669656496258766	0.33678327929651464	0.7094107907176767	1
1.073953912952185	0.6753564557197005	-0.4833717914446985	-1
0.719395413364812	-1.6394849881502607	-1.9845892336304645	1
-0.4069304913477673	-1.3522630447985944	-0.6407837517449113	1
-0.3985185911490061	1.2878419793829443	-0.38662741112668253	1
-2.697849474174968	0.6443246539763319	0.7771467691546744	1
-0.010603919103272182	0.7553736929942327	1.4374151981445245	-1
-0.044083277940288323	1.4345092294261192	-0.8624873201093708	1
-0.14964116721511092	1.3517918111942246	-0.8792899598868079	1
-0.06803350121825381	-1.0869430368245576	-1.522388686901141	1
-1.3248781533141487	0.37782391605645804	0.2381033081852086	1
0.5393890690836269	-2.0561191107147785	-0.6763952458879597	1
1.0191493972156287	0.5079951349051893	-0.2935639474025437	-1
1.0929533756617424	0.34200293088176814	0.4682866170804285	1
-1.474859882012922	-0.039174794443211605	0.7265560574664337	1
0.5250382674053772	-0.07167455231929136	0.9819941410185975	1
0.8412307588628757	0.20339344518645275	1.5494514031384279	1
1.8682459687990431	-0.07357166073536983	0.32571170782307385	1
0.2197063757358224	-0.6638817047790777	0.7421740437707441	-1
-0.10807994270356601	0.938058322178193	0.827496566289134	-1
1.7372906533799233	1.0031056445198794	-1.1810326422199897	-1
2.4236407183592332	-0.7512789693891989	0.6191178345020034	1
2.9052259689289297	-1.1102023075035097	-1.9326995904810997	-1
1.3559940537638449	-0.4684045826731679	-1.0544654503810629	-1
-1.7932213782684894	-0.24996464338146676	1.9014387680124185	1
0.9427075578836481	0.15572931723463568	-1.463344445146371	-1
-0.7173125916655878	1.4874608493790158	-0.10467829036476191	1
1.355370059480248	-0.149669604852318	-0.9220863577409667	-1
-1.4287662637217666	-0.4268570483956337	-0.8211028142403141	-1
-1.353190050967104	-0.4999191435378423	-0.7904664231584809	-1
1.4045555819437154	-1.016109539857716	-1.6933330042144228	-1
-1.0345168372562887	-0.23273057136135522	-0.6733149517774857	-1
0.5322810210332135	-1.564566235147956	-1.7512402154255307	1
0.9076787510455017	-0.22200655895330554	0.6244192472579096	1
-1.3500657155809819	-0.11444620923058801	1.0289350131519048	1
-0.5645832892858016	0.1766503808845291	-1.2502467259881969	-1
-0.3002117487685586	1.2331894896834728	0.7468853437534562	-1
0.6981463521496362	-0.20973126677201856	-1.126747547417186	-1
-0.4798465973851867	-1.2295925227640838	0.7007961012721614	-1
0.18813163946010272	2.2162991883200305	1.3849140919296423	-1
-1.5380578834375775	-0.037060041761233335	-2.053365757708349	-1
-1.0163587931416957	0.27840654358944095	-0.562289824119157	-1
-1.1170847904111105	0.30313001699578146	0.8276748535317964	1
1.0963429090470578	0.15995104716645994	0.6335879612183425	1
-0.05533655803897189	0.9264723243023051	-0.7406598023893453	1
0.49372911007241815	-0.026225838299356048	1.4055092071130337	1
-1.121961803902405	-0.12708834431630706	2.032612853169805	1
-0.2017664252005195	-0.8035446678407965	0.44976525058699135	-1
-1.823965881240888	-0.6034697660313119	0.5058430630673882	1
-0.37890695903042576	1.1153739902064916	1.2447579321584161	-1
-0.2861822752569728	-0.8452712960267972	0.15051952401281646	-1
1.3089591933536315	-0.7428816959874678	-1.4711842450716208	-1
0.05579808586457139	-1.177610361987281	0.9209436560395379	-1
-1.528679979142847	0.04942054115554815	0.581782698789309	1
-0.19224059831078028	1.4373569823776409	0.5775068746829961	-1
1.6845780802217871	0.45818161673522245	-1.4487748262064013	-1
-2.3615105105027907	-0.2462796899087421	-1.1492156233718622	-1
-1.5581058648421882	0.3363992067317255	-1.4637523119855649	-1
0.2796661990454034	1.1600149290445916	0.6994889895415084	-1
-1.4125416470864849	-0.06143623709513907	-0.5159098817174606	-1
-0.028873194112250384	0.7143746857659585	-1.4102544227841562	1
0.5298660872822369	1.0043510091890868	1.3076768682761353	-1
-0.27119759514646946	-1.8192740435377006	0.5860437393515118	-1
0.005589970773503584	-0.8344714007367522	0.45010968374049887	-1
0.05075085960095038	2.0913439759109855	0.8933712557051946	-1
-0.9908244012146789	-0.32234686289633135	-1.0841129291680043	-1
-0.32418223266197627	0.824656995245944	1.5464942935901476	-1
-0.7715139150446255	2.303905831844729	-1.3954189229230076	1
0.7261467767360341	0.46281077869915244	-0.49843976052432765	-1
-0.7080342369845406	0.49694820444452037	0.9015114138151419	1
-0.21694459234630994	1.210365675293069	0.8090635479785109	-1
-1.4848564989169721	-2.675069061154563	0.9343801380104794	-1
-0.7600818605943775	0.08608763149850374	-0.6525263046225432	-1
0.11663582921075284	0.5163981509562255	-0.5380156182169491	1
-0.02294854381323265	0.7617251415827506	1.142619339106599	-1
0.031123090767490886	0.7023054944490843	-0.9181953215934844	1
0.1679431802918215	0.9287424588958629	0.9877009319710194	-1
0.8740253243944642	0.3734633384547561	-1.092529458220066	-1
-0.24892888967671564	1.7472446339336754	-0.8165634790320401	1
-0.7660215579047506	-1.4328386474968706	-1.4979875950952297	1
1.2945820749890782	-0.07422915343105133	-0.40908916765630043	-1
-0.27671345445791284	-0.996747414404406	-1.1347462435501545	1
0.5243814382690575	-2.1677311318777543	-0.4148908690431884	1
0.12271511101282911	-1.1753236660355018	1.093817654480423	-1
-0.4510518556382637	1.7260135648949142	0.903479021852329	-1
-0.09551369167805546	0.9126767124014958	-0.4631673074505945	1
-0.2523601163737588	-2.0355405432377682	-1.059322093210635	1
1.3507784276450838	0.2507121370234959	-0.9284411465256828	-1
1.1956088455670557	0.033836444128347624	-1.2709175447094916	-1
-0.44358271974151786	-1.655555322999836	2.2961188217834763	-1
0.9076479430149746	-0.40011116719803574	-0.27427955779311225	-1
-1.4802914846483808	-0.16900052555346753	-0.6432672744105504	-1
-0.9303043780929485	-0.1344570894829622	-0.25013950069388013	-1
0.32433916744510966	-1.2130508901291686	-0.7037007063795949	1
1.2911065500076084	0.4270920981513244	0.44052435867289463	1
-1.1969928594314556	0.5284588939095923	-1.0954325859270648	-1
-0.24448733671026657	-1.0884555101851057	-1.0589971202650736	1
-1.1735022669486903	0.5689672766291806	0.6577775866487893	1
1.5325814857513127	0.7440831060661929	0.8303402044718399	1
-2.1541229117299365	-0.3115697136768268	-0.4165725662384285	-1
0.18577084099930594	0.9974721498350043	0.4995700848249989	-1
0.16994758221405717	1.737871163348955	1.0286731594760121	-1
0.9443433264727794	2.221574513360188	-0.5629432579435931	1
1.5311781593957425	-0.7651276878508466	1.4092853325720107	1
-0.0398016762189905	-0.4225513833725729	0.5178183913659493	-1
0.11616615038559841	0.9407726131686499	-0.5370594324254448	1
-2.4167222116375475	0.5563927385615427	-0.33431765105825195	-1
1.2884384752258873	0.3859384218201517	0.5727625087836286	1
-0.36323960646891784	1.228466440484814	-0.6609000806681903	1
-0.285068949826815	-0.6919847011053646	-1.0370101327129262	1
0.060033788962185454	-1.3517573841731596	-0.7640936423373075	1
-1.1450259167334238	0.01342480117504576	-0.9384970230055997	-1
0.2904845889392574	-1.1224925390326692	-0.8909684906954572	1
-0.10169754221224714	-1.295393896999948	0.8854267917592505	-1
0.918817548599707	0.10476411567701716	-0.666947479300216	-1
0.31847810237560753	-1.1766022690301132	-1.8865495644352794	1
1.2638947681540695	0.20108101531365077	0.9159547170798362	1
0.0235163872717475	-0.6810284980042007	1.008937614248676	-1
1.996318077581221	-0.5680623917668682	1.1983174482037884	1
0.907986515430555	0.05876789752823969	1.0615011418910367	1
-2.0719575695525587	-1.293367828454736	-1.7793157339786632	-1
-0.011289522435380929	1.0465476000689833	0.9852189214132805	-1
1.1419435550148618	-0.5315710000485129	1.6487415441329727	1
1.1209088982803785	-0.14280939585641952	-1.1355665741634888	-1
-0.5611962246063332	-0.9955947900946254	-1.155427211877814	1
-0.5809130736455099	1.890286895227249	0.8011315084139503	-1
0.18435766100028117	0.9307619859360052	-0.3610713132724148	1
-0.21676280671531756	-1.3104224210200914	0.7312807034803783	-1
0.4547169645273867	-1.331355035461825	-1.0101337569972444	1
-0.040340503397053265	-1.385448403170279	1.3277293938770995	-1
-0.05690161351925882	-1.5849076179338453	1.3019331468405193	-1
0.455886496286404	1.4636415799527163	0.7557651941524721	-1
1.3095370110890787	0.048696886117592035	-0.30631889393396294	-1
1.0121559055352831	0.13762338118171671	-0.09723879009786766	-1
0.0703516519491674	1.9786660031734191	0.6259754178263485	-1
0.5560949925058022	-1.5227462414035875	0.814402814339128	-1
-0.2361960767657475	1.275293315712579	-0.22819458109346769	1
-1.3734705891433163	-0.10481518815394314	0.460455614415198	1
-1.9176937873602058	-0.37020821346094185	-1.8721410708311765	-1
0.6424702128764435	0.23043200305649783	-1.4873678344587624	-1
-1.773783130915616	-0.01566712488010481	1.1272982666663325	1
-0.18905368141115236	-1.0601932481606742	1.5390141034851226	-1
1.0968160009750345	-0.24885475966756243	-1.0602051662031033	-1
2.8279424359768996	0.06247795289307854	1.9220086210596197	1
0.26165369097061325	1.2756504555457346	0.5365355525782628	-1
1.5258642280805945	-0.10604141891376795	1.781972833690254	1
0.13986479597638454	1.5389979536746587	-0.5243716997817813	1
3.5974960401446454	-1.1146648988430925	1.178486359170009	1
-0.04910293860053473	1.1871689741599514	1.1922358169843146	-1
2.0464483471249824	-0.11232183364577351	0.5812685737848233	1
-0.07199103124048171	-0.8890790164716338	-1.6213314856322498	1
0.43857205125713555	2.082100471081608	-0.792032720163399	1
0.6288203465746702	0.0861890773806731	0.8739168074965612	1
-0.08759370876331021	1.363929573616078	-1.3284251331312216	1
-0.2439547376370304	-1.9358098317130084	-1.332146998628492	1
0.5562835213563405	1.4808387966299634	1.6550112022098113	-1
0.4089853862774293	-1.239792626202555	0.7103049187258831	-1
-1.1017968906583535	0.4731834742741855	-1.2927634135554316	-1
-2.380668381051439	0.5687809637232103	1.1605910716308976	1
1.604554707853903	0.16062659669399004	1.5911203082276364	1
-0.4341718699559456	1.188999914591873	2.414842260993707	-1
-2.0237455481623203	-0.7851586178188281	1.2851718109680412	1
-0.3257566129766527	-0.8869726625335466	0.37125602566919225	-1
-2.1367393916150954	-0.7057250070420801	-1.540059210883843	-1
0.7423283817173212	-0.2667430417933991	0.634747902450604	1
-1.5196406661375585	-0.2119717602287728	1.1794700265074727	1
0.5490379949566262	-2.0657546560219777	-1.2575228972428434	1
-0.1335382949677471	2.1710169529441155	-1.9697442477122529	1
-1.9974297312469784	-0.25041986445161896	1.519977947755391	1
-1.2033308849697069	-0.5160141953421122	-1.2482105705882551	-1
2.0602959620300356	0.6561549606081418	1.497876698836592	1
-1.8024509713039174	-0.134506303008969	-1.9258306544295352	-1
1.8626426743444826	-0.6518916964122958	-0.8385326925038822	-1
-0.2697914572970306	1.7187882690417267	-0.5625926587217657	1
-1.4414176969451058	0.35838235587506484	1.8014236051068462	1
-1.02598261832885	0.11724490735388665	1.074977757659103	1
0.4246855182589306	2.473719369331567	-2.636904888306861	1
0.2297244086003452	-0.7064779964138072	-0.8999975282687305	1
1.4242137516911866	-0.3990564305185633	-0.9308717040452397	-1
-0.8768923842044659	0.11547792453499046	-0.8356621923201506	-1
-0.11313512405697167	1.486034313230709	0.5428970842408756	-1
-1.303102680202353	-0.1335886906640281	-0.599994283556201	-1
-1.0643330866622693	0.10442219258398576	1.3337503944089397	1
-0.693370150469583	0.5550102504243936	0.2793947909397824	1
-0.14553340039529084	-1.1154687187344838	0.676857112369472	-1
0.6947229851649622	2.1101263629119402	0.5150522240197895	-1
-1.7888756584193608	0.11053876222190062	0.9684259356851723	1
1.9964660163549972	0.35670967981227775	0.9411850159864434	1
-1.8970841608926439	-0.46664893072675984	1.102785198340779	1
-0.9864852701976823	-0.3106059879794016	2.318988034384169	1
1.5307590553847998	-0.16146580441282352	-0.37909462034709496	-1
0.13797576483230287	-0.8122097763407109	1.286834044424075	-1
-1.6452924446510875	-0.2444816722822789	1.6684449993932633	1
-1.764892240248165	-0.546130667240979	0.3550449564159173	1
0.10544978978978413	-1.5542017029566964	-0.9242706420997279	1
0.15259537854984012	1.7729876955077257	0.4703543837347766	-1
0.31736113204146577	-1.6205009459399855	-0.692893964014166	1
0.31749953523686336	1.402451617166868	0.410299465563086	-1
-1.309222860824585	0.41839420709680725	-0.5467690457628919	-1
0.830206156167977	0.11664593247476152	1.4248351690942103	1
1.293736457230751	-0.06082894917937492	0.628700684973111	1
0.10815651884404326	-1.5180138680136925	-1.6028854913975619	1
0.2518202321673738	2.0554178462682886	0.8162766623469109	-1
-0.904721415206187	-0.2495364322048621	0.7876630200983528	1
0.2776170650112361	-1.1258568580263704	0.5975880899640814	-1
-1.5072076347499417	-0.03568530271432018	-0.18534183802112725	-1
0.8535084832815901	-0.16715869856243423	-1.2082630821467026	-1
-0.9332798440514596	-0.4130176914772582	0.19036106812860618	1
0.03549107167701776	2.274643394619234	1.4801201198806213	-1
-0.46716798312641883	-1.2701169365758391	0.6367774650553395	-1
-1.379309565407374	0.8051767978357054	-0.7475570591099128	-1
-0.39820748932022504	0.8323894180853652	1.0773377342858506	-1
-0.35131996368130225	-1.665853347899558	-0.6381079283062442	1
-0.11071338155388635	0.8373993724158462	-1.1343268978176575	1
0.1957487513008065	0.8803345619154133	0.9028948943298594	-1
-0.18296380480663554	1.1678785074240048	0.968662096613289	-1
-0.30020352871116096	1.4414091244848408	-1.3312965584500436	1
0.10053609264087718	-1.371549940559285	-1.620070658805377	1
0.18503234959383663	0.8625931117362846	1.4544208198731023	-1
0.15842349768547315	-1.4172053387393817	-1.8703359850687562	1
2.958007856584059	-0.8439296267760457	1.0805798452883522	1
1.3294617641198068	-0.9813612071025226	-1.0388907214853806	-1
-1.9603975017664081	0.2591707448620123	1.4986347837020226	1
0.3308268235580891	-1.2365484411063778	-1.4879431705899229	1
1.2943195870057829	0.2287875074458044	0.7914324523994091	1
-3.4929914586610153	0.6082740265230384	1.5667271395883302	1
0.45014470096019893	1.263324709903392	0.6282147090750352	-1
-1.6924824508036114	-0.045222149532167376	0.49878844494839414	1
0.6963829328350649	-1.7241738237017668	-2.0051007730387673	1
0.8763392751945537	2.1848857080450435	-1.310077871609982	1
-0.015374727559471238	1.3382622643081914	-0.5073774622577376	1
1.8208034311662222	-0.13574523916640835	-1.470237964078492	-1
-1.015763444478093	-0.09562207170916952	-0.723382756156366	-1
1.2493731803315906	-0.24093163071879986	-0.8530575075475154	-1
2.6077541898558607	0.06715516936383213	2.1506699746659854	1
0.10806667231076283	-1.15884483919546	0.5089189079600533	-1
0.8719062087510118	-0.07106297040315204	1.0711696708125344	1
0.7755129806893402	-0.31841374146537627	-0.5961776224068664	-1
1.505359784773907	0.02924742627533953	0.6371670209117708	1
-0.031141753003125317	2.2652591742287895	-1.052128257607709	1
-1.4720590148811639	-0.10861048194081963	-0.7374753460635475	-1
-0.20864351082419527	-0.9270995566003336	0.3991850256461716	-1
-0.01812182034207775	0.767695170542727	0.24084255201873536	-1
1.1015882887868296	0.056909421230398376	0.8581992998989882	1
0.33783023201241175	1.485499303722313	-1.192107574647445	1
0.9113017933509169	0.10268334083475883	-0.17219141256849502	-1
-0.11600583934871189	-1.8502134071608163	0.8427091284498793	-1
1.3429899233175258	-0.39166889108877534	0.5834902478460866	1
-0.0759085639236204	-0.7371785446464053	-0.7480909220528039	1
0.018154591677868155	-1.2455884073491275	1.114592407016584	-1
1.1248388440512995	0.08717943498979336	0.9007604288939531	1
-0.8024718380056532	-0.36970329266083346	0.9730084386770743	1
-0.6510128759707416	-1.4083925961198265	-0.7480382820922504	1
1.3306650577900576	0.27732271027273014	1.012789772410791	1
-1.0444855000695639	-0.11511926911939015	0.5790385549781034	1
-1.5970747166845147	1.0770090332220144	-0.761604002395303	-1
0.12858627943994413	-1.4703499824160429	-1.997486884357217	1
0.3635492258750707	-1.1015448927341087	-0.6854840926603427	1
-0.4223595543386643	0.984717403610376	0.3034682381412115	-1
-0.3834812272478294	0.7098507431200854	1.0990897366276557	-1
1.067351492301811	-0.790310770750386	0.3715875813755916	1
0.8535479726809853	-1.7744935203277525	-0.6070244895343843	1
1.0018760311510209	-0.18815073715723618	-0.5889968217598865	-1
-0.6093537444417954	1.7248513213420111	0.9352876532637318	-1
0.11517298535700611	1.7077052653062037	0.6826072632523766	-1
0.2519170928383851	0.8097252512508887	-1.4087246194021212	1
-0.26745541392963523	2.383609912833081	1.621245047311193	-1
1.1877739946146304	-0.32587293260016925	-0.9475672109204564	-1
-0.4866963857846184	-1.6686315637802058	0.6412544952281718	-1
-0.5327557310962818	1.2341062368479738	-0.9929976800827979	1
0.029802854133124102	0.6622963521653742	-0.6748219029616831	1
1.578028416707667	-0.3043591379328343	-1.524187280546922	-1
0.5001876247295233	1.7670611513265184	-1.344780992597979	1
-1.724491547362093	0.5480484697563547	1.826793962465432	1
-0.7259128604555919	-0.07700008033289041	0.5090209235973181	1
2.098744174620968	1.039921157087407	1.5385922754656465	1
-0.19664131715238806	-1.5003287622494321	1.5505331318916573	-1
-0.20494291730713854	0.8151271934261326	-0.8293976370852886	1
-1.106743749347676	-0.17301759069235695	-0.6545162460698307	-1
0.04041129917022804	1.7292365999535848	-0.8581145557296532	1
0.04887770040553934	-0.6901657013683365	-1.048997041384989	1
-0.12404402177509977	0.7531026089775983	0.7898928182204941	-1
-0.08088986428484604	-1.6981217094032968	-1.1841296966702444	1
1.2097625701446932	2.2812373036290676	0.8581612776051083	-1
-0.6437217652830878	-1.8161073259704137	0.6646142304737732	-1
1.3395651154061161	-0.05702698540849718	-0.8385413329985142	-1
0.7999049677424304	-2.092286758453993	1.331604650267644	-1
1.5035224771961735	-0.34669035931374825	-0.9907018946501571	-1
0.08139769127629781	0.7776055159978768	0.348016097759537	-1
-0.6555041103999144	-0.37885984810630463	1.1925814448619343	1
-0.1533913366889617	0.9793044633660515	-1.8122478177222376	1
0.15157372823335669	-1.2536180499327882	-0.7079773707525178	1
0.7520938527568661	0.13994767783863346	-0.9146229706866651	-1
0.34299022571855103	-1.4374912722900028	0.1702857771753266	-1
0.06863681517715103	0.7393699917974691	0.7104282686727262	-1
0.30215119279601066	-1.351338686039063	-0.6923416822905969	1
-0.2398315559011234	-1.1510737088277219	0.8439593475296621	-1
-0.8488072950643878	0.22559306452659614	-0.5111696563239476	-1
1.3042838880519247	0.05592680637370398	-1.6036948641152478	-1
-0.07860810250840326	0.42051154988873907	-1.1672035465372443	1
2.195897105634566	0.4117027969672993	0.31914591223881233	1
2.083856680162506	0.8062471792875361	1.4708002300337606	1
-0.035552244787468434	1.1727006369496467	-1.2312060676177656	1
-2.6577465692126734	-0.8325849910144312	-0.8928492916253155	-1
-0.24031015299193884	-0.918783588628246	-1.786821732982195	1
2.0472870815780637	0.2680521056069474	1.2639195252823134	1
-1.8685631881969187	-0.5117547805853379	1.0182150885970143	1
-0.06262608309216858	-1.234014381745147	0.9464241327339116	-1
0.20780106228437678	1.226240169737834	1.2676036603049967	-1
-0.6863966784568628	-1.12201589695396	-0.3823676391469087	1
0.10749454889276942	0.5745121642282361	-0.5363324776213524	1
0.11747708844551404	1.540732696058517	-0.47588796934892735	1
0.2468236107758225	-1.0296865166252753	1.2395030599789687	-1
-1.2948655797172046	-0.02199443486367855	0.29659635908370285	1
-1.0577606966188708	-0.022746756545411966	-0.45287758148599927	-1
2.04398188147403	0.25797752566447035	0.8140501148398149	1
0.9320858463680856	-0.016150938968910743	-1.3067671603610322	-1
-2.021585325521116	0.26069332053103095	-1.5119703465364365	-1
-1.4556056273296494	0.09228643015580364	-1.1628324052587415	-1
-0.0765388910566886	-1.5530423489059573	-0.8798235489862419	1
-1.4690293592130725	-0.2236004050645852	0.6740212761113136	1
-0.7023818054190285	0.15014008465986306	0.6182088699552836	1
-0.16240003967833616	-0.7845451516664738	0.39312877024969917	-1
1.1052915967292127	-0.11726834140968218	0.7901612941759214	1
-2.6347087792007224	-0.24371211516214186	1.3771070896147362	1
-0.16193338764545168	1.1481315875646219	-0.934437298308628	1
1.291723923020951	-0.00864822550897573	-0.5339436728372761	-1
0.1756474810700722	-0.9808449354879882	0.7324711320539828	-1
1.525892962322869	-0.832646189222669	1.1105851065330494	1
-0.6814631620058691	0.11970066134430944	0.9913934751623018	1
1.2812927698662664	-0.3289015526042959	-1.8285301371171856	-1
-0.020111584452862433	1.0070939558681948	0.6752142927038728	-1
-0.9280570729855069	2.0073029400585933	1.322911896266991	-1
-0.9376206827732171	-0.3308888789290501	-0.8501544282594029	-1
0.51975306383214	0.3274625753205431	-0.7298325203398819	-1
-1.6602838595639513	0.23571628923989835	-1.1472782188997817	-1
-0.10947808402992101	-1.2029052125129636	-0.8976838176179784	1
-1.1127558507626476	-0.13991776444213874	0.6466684704120084	1
1.4844166781243238	0.25787435546052906	0.4101279418588332	1
1.6114927996677229	-0.1930590782919071	0.922338811267548	1
1.6764310476460773	-0.30275891167551827	1.3196259383760103	1
0.49050777468997836	1.8576888024226734	1.0125715960366068	-1
0.0886634144625819	-1.5143717350270807	-0.7004158426618172	1
-2.3289543642233332	0.2302122719501042	-1.035201835285935	-1
0.7742864205150164	2.0133808341979216	-1.2271017679818725	1
0.3829868932038674	-1.0225464842547716	-0.8102391471713064	1
-1.3318508854274849	-0.41315494060528996	1.196007261974405	1
-0.26891089251113376	1.1219244178130747	-0.7851652672653829	1
-0.35590395163927874	1.086404357795528	0.9454968374663517	-1
-1.2922394151603718	-0.012780204231337036	-1.1377355785277137	-1
0.05044427896221866	-1.8714079543301378	-0.8260815626068653	1
-0.8416703439184783	0.010579601260841266	0.7362075762230956	1
-0.14294664200138493	-0.954215834701071	-0.42603826185557675	1
0.38645744550253003	-1.7727346938104074	0.46952408141166474	-1
-0.2830590921219256	-1.1569202232876703	1.0576632740268717	-1
0.5040762077297584	1.7037356198682838	0.9432173483781116	-1
1.0227242377058612	-0.2926736872386363	-2.2668891851673876	-1
-2.5715918445858548	-0.8643477349449054	-0.7035780582826617	-1
-1.028991287687856	-0.2464301445501426	1.5262133507850704	1
-0.2430231218441699	-0.6436694345778303	-0.8554463347698263	1
0.016688192096297464	0.6265888741567152	-0.690963972828332	1
-0.436056827828458	0.858615000258742	1.382032059199064	-1
0.29232249622171874	1.7315285912968355	-0.7804927702177097	1
-0.0809569776374914	-0.9914886754213313	0.40162606540232587	-1
-2.0186009163111294	-0.7201854522089657	-0.454219476571853	-1
1.2043922896526773	0.01256217237057315	0.7328652479912124	1
1.796944333550095	-0.2151909687744917	0.6627203043197978	1
0.306707572726492	1.2971264228546717	-0.9451146505679223	1
-0.7767106541058125	0.06870556792359069	-0.8229296293712465	-1
1.116993363105458	-0.02184173181310925	0.41333065687118725	1
-0.0998773354914236	-1.2085751624907317	-0.8181101229500203	1
-0.9175170445424231	-0.1885362440199774	0.5145613725841248	1
-1.2975897274186163	-0.9127428115073963	0.7627021993929093	1
-0.10987858690629748	-3.1838481153306493	-0.9128575467890259	1
1.159368819024864	0.9605200816149916	-0.7277938451570843	-1
-1.5857414316121972	-0.5450790244139244	1.5465437681010616	1
-0.3209330707820419	-1.2929480910336695	1.2546661536850792	-1
0.007629705590634326	-2.250675990442181	-0.531426015375628	1
1.1952264007042266	1.892697391077827	-0.6737081042757614	1
-0.124218538955572	-1.2494112321567412	-0.19659376922977756	1
-1.5422314371830028	-0.07745408252280078	0.9464906950630927	1
0.4478641145820996	-1.3794338255820058	1.0772123498369062	-1
1.1071920456456323	-1.501763502761151	1.4021589420370082	-1
1.5632237378570342	-0.6554613279070544	1.4151599458583835	1
-0.6662174109285894	0.05275234022444565	-1.1666201877897089	-1
1.9574431822010165	0.41937216543156747	2.1168784326590546	1
1.108277518895624	-0.3241523790668913	0.2756953974610769	1
0.3797632757394378	-0.9323227911657237	-0.7706355180673427	1
-2.342417581029554	-0.05591100657766769	-1.5635609825299674	-1
0.43042580932852376	1.5157607832374493	0.6999885581070618	-1
1.8100770029259738	0.04641037409938145	-0.24062591833030356	-1
2.3743219305130663	1.4573382307762397	-2.6106893992601905	-1
0.3699220971334927	-0.05019102314868969	-0.9758164149056671	-1
-2.2535854807406372	0.7685196379689907	-0.6411862198277359	-1
-0.03347098191075314	-1.1681099184441366	0.5680921466845439	-1
-0.8336720698855468	-1.3433205231169998	-1.0805743124915697	1
1.5932243849574645	0.5427188262535806	1.5659718946681151	1
0.19897914250738802	1.0567625683665316	0.07689825295815776	-1
-0.4408560885502791	0.9913395565425441	-0.1917384631044155	1
-0.10574860526781525	1.3133285933619891	0.8627002001716332	-1
0.6601611839071425	1.2831740053240637	0.7409273840136565	-1
2.0256937341226817	-0.036972658954347065	-1.22267785073252	-1
1.254724120513819	-0.39142856295843687	0.791356494738182	1
-0.08240606351042117	-1.2054386113034092	0.7790628550824636	-1
-0.07253435970489819	1.418477402711662	-0.7209894460928289	1
-0.3430837915613286	2.4235976324553867	1.771361471159198	-1
1.965677155544659	-0.10091312856007027	-0.3014616549917503	-1
0.25400658673441867	1.1517692830780153	-0.19380221551917198	1
-1.5526613914121492	-0.38308929923905466	1.3058458963042006	1
1.3451099725436741	0.18986489403828047	-2.3466393519010817	-1
-0.8113715868079606	0.22532301576440383	0.5454146170209034	1
-1.229751108594589	-0.287772371026004	-0.929232498984527	-1
1.999462505485439	0.20650772077983215	-0.29449868427825876	-1
-0.48061867012465004	-1.0369664278907424	0.9006966469870479	-1
0.12194667742259134	1.2150070067473573	1.4104161918609426	-1
1.3313561493944999	0.3638380528680104	-0.6270044746611307	-1
-1.8550339676852432	-0.5650871049011722	1.2716150357176543	1
0.27276864587488053	-1.3390081676082186	0.823787268669388	-1
-1.4582018850625147	-0.3442572839135303	1.8552727910935058	1
1.1154084718458976	-0.3091762970760237	1.0391940990475304	1
1.3392883765313923	-0.04928667415739148	-1.2764107186563867	-1
1.632347121817427	-0.5272086280604323	1.1416917632796373	1
0.5915905016442341	-1.6071135413827768	-1.026069475683618	1
-1.1561463168744346	0.7355578476149375	-0.7598803008104738	-1
0.03835856089925985	1.490640656691804	-0.371241023161508	1
-0.3547340717751666	-3.3190943822542396	-1.14394264835432	1
-0.8095030271196677	1.2288857156714064	0.6277314977698365	-1
1.753108644398263	0.22624362850985624	0.9038475656033976	1
-1.0352690225791894	-0.0419561878477741	-0.840088666811306	-1
0.22967138359323866	-1.3645534967430444	-2.1702505529208316	1
-0.545100671766805	0.1760436871561936	-1.3438639648442603	-1
-0.040138126403776585	-1.636670480181245	1.0835553836059326	-1
-0.3665546989446663	0.906175881460785	-1.2921499489855561	1
-1.5037360013212238	-0.5894459080726863	-0.5930245486280199	-1
1.4344372021999348	-0.40886761065433713	-1.5953599861021162	-1
1.4578697454830791	-0.07377474270663442	-0.5225341631676245	-1
-0.8182743003060978	-0.7679889108659212	0.6235559312406339	1
1.1140184351673155	0.4112443119638496	-1.1706581944522574	-1
1.3771870219191455	0.010587609149064044	0.9562684799538772	1
0.20917354050261358	-0.7167230749383986	-0.4348557303014573	1
-0.856703922663411	-1.1300938720724714	-0.363860509670765	1
0.3398229432651201	-1.321924652143477	-1.088634798542246	1
1.2561058651823165	-0.2721790526896915	-0.8380801889262548	-1
-1.1533158426706225	0.6011241275315758	-1.392494347342691	-1
-2.3489142351564305	0.4687147970646186	-0.3092752424193169	-1
-0.7571289331761838	0.3027942746668829	0.5208085636856906	1
-0.07832192914681554	-0.8985146467077181	0.835642951914905	-1
0.24982659407341298	1.397282074509075	1.1642792322380424	-1
-0.3181386384929443	-1.162140464780465	1.299072899515209	-1
-0.0952934577247627	0.9103800056005391	1.4120692843143976	-1
-1.6113860995344806	-0.8317673203004081	0.44208885647493457	1
0.485618168456217	-2.24190737565327	-0.37648476110062	1
-1.3704647997664916	0.09724490486522935	-0.47946807055843577	-1
-0.8797516989563022	2.005925125765557	-0.2004094437574455	1
0.6804080288288814	-0.016580186197734985	1.2972915034428478	1
1.1861829686990164	0.16117058047672794	-0.6963041080789127	-1
1.1997578045784003	-0.7496220936850362	-1.1788289641369303	-1
-1.1847818271487802	0.03086942107503516	1.363173232865714	1
1.0988288353120537	0.3254243517321902	0.31303903429061153	1
-0.20746764497142856	0.8857208602898141	0.863662448818141	-1
-0.8341745854884893	0.20195559838487617	-0.4608023905854681	-1
0.49662841406101776	0.7983588352543105	-0.5290194220902612	1
-1.7561457600579349	-0.3727788385735345	-0.5431162192808597	-1
-0.18919217520858808	1.21444522326237	-1.11929157863309	1
-0.9444647833711883	0.043106818144316245	-0.8231297105309733	-1
-0.7220298387016036	0.08297626033808254	-1.5216076996631422	-1
-0.8219386304533164	0.08786318226302087	0.5942006726255528	1
-0.9722432826181004	-0.40214269044582895	-1.41270077212	-1
0.9668225027360235	0.20912698773301788	0.36487506398404246	1
-1.4159901466413873	0.19888834827118948	-0.9417010280013166	-1
-0.9189386879827737	-0.12524442331119603	-0.9874948459904154	-1
-0.20898377444328303	1.2080385512432759	-1.4432268888697504	1
0.0008867181274722138	-1.7071746836484085	0.8784005263964257	-1
-0.78403882704502	-1.2369805425409828	1.1296004653885379	-1
-1.364054410893558	-0.2007374285255962	-2.156277734119269	-1
-0.3476725606622279	-1.6748294789470515	-0.8117037139956076	1
1.5170058648662312	0.14188372418617098	-1.0977288653446375	-1
1.3495128458381815	-0.18321389350842454	-1.1058822866120834	-1
1.4298022278463816	0.3899747969226575	0.8049651818447257	1
0.36137152697534125	1.8633041487216973	-1.6379595941081158	1
1.4847518338910464	0.22168240174983858	1.3935294671968845	1
-1.183516553810686	2.491921208349586	-1.376111609719753	1
0.03792177930387374	-0.8457997018180257	0.6208196753395975	-1
-0.44639647768632557	-1.2463658668289022	-0.7917920064475732	1
1.7634599317231487	0.6736026419667445	0.4529055274468867	1
0.7783595011419598	-0.1692473491114421	-0.6857890234602659	-1
0.3107830627967699	0.9784524700386101	-0.8781308983046513	1
-1.268081336156505	0.4641494398083113	-2.19157149206778	-1
-2.2449433099357337	-0.19613181958968498	1.4146952584209678	1
0.3145777068319385	-1.2042062973486316	0.3939764186743404	-1
0.977129301888259	-0.23844352675632866	1.0731199538581913	1
-1.7385437824355758	0.6157153393979168	-0.4230523749766155	-1
1.554163632296865	0.9792357767286731	-0.7011900563679231	-1
-0.9186941278596419	-1.7044082853530207	-1.2944084999299	1
0.17688540403562636	1.8887250702728406	0.9431376060255554	-1
-0.2418201912234272	-1.3056508435446437	1.1090447809391184	-1
1.5959835038439936	0.18296565866317357	-0.8066075687665686	-1
-0.4690012960257856	1.9805103756357907	0.37613553761059343	-1
1.1012761760488028	-0.6847409090403426	0.8634224528101149	1
-1.3346112910444448	0.6470307798964633	1.4719838302331885	1
0.5722629084520999	2.0266606085997623	1.229054230375323	-1
-1.6571390376033444	-0.0559898148393468	1.4959718044212198	1
1.4168711687861617	0.19989586215600022	0.9619012906414469	1
-0.4235880079329096	-1.1970598658245468	0.6642351497134145	-1
-0.16762804979024948	-1.0318548736874023	-0.5579545609330369	1
0.3448094296398704	2.03441743044658	0.7281132226718667	-1
1.0668135634300306	-0.25182174155650655	-0.5785713361847578	-1
-0.1728318619519954	-1.6807032037303242	0.28552810451099814	-1
0.10694439273360999	-1.072013784438244	-0.32246584902922104	1
0.45318924033666685	1.8054649436859316	-0.7686866030548444	1
-1.0844703914255545	0.14608230868977365	0.43109014874793594	1
0.18813099046432324	-0.9254904363217407	-1.2786383366934346	1
-1.0256861558054302	-0.5622131675714264	-1.1841292214197214	-1
-0.2607596936334498	1.4429083818047517	-1.1003718814436974	1
-0.33744217196768533	-0.7455268499871248	1.2386326197027255	-1
0.13750370737964918	1.1154257196056363	1.820325299832139	-1
0.7655914872803813	0.25799933778286693	-0.47922328673387726	-1
0.9796198589932872	-0.007734056677013396	-0.6431268108435031	-1
1.2460978033688217	0.05320983207348609	0.8560138947328515	1
1.504520846789591	-0.04107230686876228	0.4724945380583896	1
0.007398071143025199	-1.112009196615369	0.4614585562183721	-1
-0.3542978449524268	2.0645467670776156	1.347383315907023	-1
-0.11843904858498813	0.7474527156042788	-0.9609482998401303	1
2.333115967588285	-0.06323726189850196	-0.5934574877421034	-1
-1.371751802090605	-0.6371760174748906	-0.34513700896020777	-1
-0.04372203453648643	0.869396131459721	0.9101566766462414	-1
1.0227101262154512	-0.15828340221282539	-0.42081329991724553	-1
0.18459986327832045	-1.8090885972434791	0.9549870391434525	-1
-0.5760435762325429	-2.730717427344576	0.9357633689650667	-1
-1.1547059499878694	0.05865767604395436	1.3235161023188564	1
0.006921798987499227	1.1866420685227828	-0.26228802183772987	1
-1.171740919225192	-2.0672280678552006	-1.6615764771768295	1
-0.47857622897433966	2.725631768169807	1.6246595238842507	-1
-0.06737631113297876	-2.1515103945312415	1.0141818309905188	-1
-0.8805492687616354	0.03860932934980021	-1.1146576213451114	-1
0.3783074427095043	-0.7698004043262857	-0.2918896890274036	1
-0.8163315678732647	1.7954183840501288	-2.2286632959223827	1
-0.11599571730681542	-1.2695451272883373	-0.4525077527750104	1
-1.0560176417156368	0.038179261341980075	0.6918237055895756	1
0.7515181994839237	0.1936080828752791	0.7508720166065815	1
-1.573919957413248	-0.8045531479690187	-1.0230372758203137	-1
-1.5248838461578784	-0.5699197818010905	-1.1114832493486033	-1
0.10357866985346185	0.9863611312449673	-0.3355115505359183	1
0.2700908779665685	1.6293516000865047	-0.913539730732892	1
-1.0973587846244492	-0.22472021596249359	-2.002690038428868	-1
0.22587771190663825	1.196304782825979	1.0787352250106872	-1
0.5252073441122654	-1.7950783814640099	-1.0273339704607762	1
-0.05651662512688824	-1.173404132800744	1.3320983773475257	-1
-0.17102345386322304	-0.655428826321068	0.4199257276193783	-1
0.4708478830836582	-1.7159447935276306	-0.7980746923337483	1
-1.4961077675941863	-0.03664937744631589	-0.7985710367655521	-1
0.8461259860135985	0.42522416061056884	0.7835528854188407	1
1.1650192915205881	-0.43506059498776894	-0.908809353251395	-1
-1.539337596070894	0.24178515873170833	1.3639669159082208	1
0.10106890839807783	1.226402038514655	-0.7092342514383867	1
0.01934144060234959	-2.2518603426820287	2.018562233326475	-1
-1.3051963987217894	-0.09702426122375574	-0.5896345118333883	-1
0.21290097668189578	1.9403960917945142	0.6742440357231577	-1
-1.589965931736872	0.37163985197275157	0.7870455660030116	1
-2.068531715102777	0.7343612661227871	-1.7125486469531737	-1
-0.24273043000486272	1.3091081055430802	0.4663967221589245	-1
0.022903849293374013	-1.0666957746844845	-0.24609664459494207	1
-0.719656781799758	-1.3666537617785168	1.2280706832131871	-1
1.728200559295023	-0.5115012843644504	-0.35211867038651173	-1
2.19093575810862	0.05018920102193343	1.2835957971589038	1
0.08044901465725654	-1.1446353900966364	-0.7705622374377188	1
-0.05899891465224229	1.088712716103759	-0.9280571047081212	1
0.10281791159861926	0.5813393986846694	0.47316621155042615	-1
-0.3774956448336692	-1.3452743614902576	0.9765268280351758	-1
0.058500579091969075	-0.8203698654274958	-0.7129049307858338	1
-0.2594219912452413	1.1717962351349824	0.8449897600869204	-1
-0.716577588262595	0.036942375577775764	0.5143313197737562	1
-0.9255684744010518	-3.4802799867007317	-1.5527433910691784	1
1.3214640603329402	-0.24545311440664708	0.2435780577133321	1
1.0431085066229862	-0.5130201228118623	-1.1549516809042926	-1
-1.0085504341529676	0.21299728387920971	1.1441922845682042	1
0.19875015559371775	-1.0918462006067509	0.5216594582699211	-1
-0.7837120342575202	1.4123906995227546	1.7187764346721697	-1
0.6495041545791289	-0.01794898109110286	0.3624315361340488	1
-1.0042332971132004	0.12308238445023559	0.789457995808305	1
-0.02888008440666348	-2.6507915737933825	-0.3694563529845912	1
0.452999665787552	1.2903131185745949	-0.7095581077367042	1
-1.1835789325899675	-0.06902823283895278	-0.22452087517236527	-1
-0.8783316376659592	0.29479071234059645	0.42221181487439935	1
-1.6604183887896782	0.3455787505570004	-0.6811405558011079	-1
0.6765199968700235	-1.3923508822117339	0.8051920278934195	-1
0.11878810856940572	1.50272778010918	-1.8074425894367263	1
-0.3450230886495655	-0.8509331643841357	-0.8110367093123187	1
0.2825434790184582	1.597029506942825	-1.0146158183139364	1
1.2799646693304323	0.4593201714999158	0.8248030976011684	1
-0.6591064132028981	-1.568520092202294	-1.542723691176755	1
-0.21140168084386227	-0.6957441130877248	0.5906661833985359	-1
-0.5325772116878505	0.18326127716374097	-0.762145720639372	-1
-0.2778676226016591	-1.6915060723181037	0.83944702826192	-1
0.1724615281421291	1.2347150420275526	0.8331895692685983	-1
-0.07079372090973905	1.0594943053098975	-0.6012459224080627	1
1.6343195805869986	-0.27585555353845786	-0.6044089721421995	-1
1.707054340043185	0.31213411111025857	-1.5025053457649797	-1
-1.0969652984901497	-0.2131568759613629	0.9836902138431555	1
-0.19337109159344082	-1.3311902414803285	-1.0718286391129879	1
-0.6356916183531687	-1.7122471379345026	-1.1758347439313277	1
-0.3483067064644976	2.095383742457592	1.3319013923908365	-1
-0.8593728722161196	0.622977530054309	-1.0598026118434292	-1
-0.2745378802267034	-0.6836847797194497	1.1142759501450883	-1
-0.36474498171095976	-2.1986750640308337	-1.1304387040292256	1
1.273694871769127	0.4775836254103711	0.9816932547819711	1
0.22015656452109045	-0.6574086875755792	0.38191511372142317	-1
2.690319178090395	-0.25618546594955377	-0.9931706873035102	-1
0.094003912140675	3.1626287961781627	0.7576282528764173	-1
0.7568532234131151	-0.2492471670555641	-0.9485101821032663	-1
0.16852291863196384	1.0196040402532578	1.019720716108083	-1
-1.4958071980078929	-0.044480181973507255	-0.5933797946159762	-1
-0.3726223962235491	-1.2995145084234805	-0.8223970197596681	1
-1.5884718662525756	-0.2269488963927232	-1.4314057025715352	-1
0.2857109004624185	1.1344390968218743	-0.49488606400591756	1
1.3569303655878435	2.0840226157108144	1.6195073829311788	-1
-1.9088342029960295	0.378941760191851	0.8824470112339304	1
-0.9608669004598869	0.3991789612398282	1.7792911155727016	1
0.28195422586510616	-1.3765484775781056	1.3338274491156925	-1
0.7363323104398238	0.17638159647845117	0.3438188088635319	1
0.24658288738817108	1.2876062920182143	-0.32814284527401905	1
-0.1173198318100611	1.15535995661073	2.1702672951234283	-1
0.03263687715540237	0.9677797159528856	-0.43041125729828345	1
0.05136807503078098	-1.540232419989789	-0.75990374697429	1
1.4304573472323119	0.13386168269510756	1.3753662790019894	1
0.9398763270926258	0.3297881278253805	-0.8806836726457088	-1
1.838234423746856	-0.802648220202798	-0.7864423862269473	-1
-0.06524954259487335	-0.4452457718499462	-0.2954858640618056	1
-1.7084496616454634	-0.8505472064842918	0.9409128562214264	1
-1.4822808148855284	-2.5578003852413858	1.1939729169865787	-1
-0.3547856890903193	1.737472249457504	-1.4850686854375261	1
0.4114437664912973	2.3113488899233667	1.538564889654228	-1
-2.052748515814501	0.8245751191195393	0.9716661223094877	1
-0.49854619041178555	-1.8072697518576537	1.543411594882702	-1
1.9590438496975162	0.2700716766389526	-1.353073962799325	-1
1.4159012123629537	-0.9251927186289397	-1.3883514506313288	-1
1.7416932642909888	0.6970290265196297	-1.3720221660891427	-1
0.1405004496162056	1.1976463669900927	-0.804058945263725	1
-0.24251683851862077	0.8819449477428694	-1.0254408055410773	1
-0.5018800913179075	-0.9684269693898795	-1.100439241831334	1
1.5172395931789056	0.09465861041993558	1.054741744329507	1
-0.03491853707989072	0.9042017422109355	1.9145474834983442	-1
-0.7914668123659704	-0.4198482930404705	-1.0176151234455637	-1
-0.345661816176827	-0.9317631182926596	0.6382957417078856	-1
0.07252961197623091	-0.8881645362423015	-1.2953590150693586	1
-0.337594740392611	1.17589378779453	1.7410638536229763	-1
0.04335252327372919	-1.1287864741111977	1.1244961269082148	-1
2.8736981094758574	0.09917218498219757	1.4749286108650854	1
-1.781488354495689	0.330522705138248	0.9665315425891485	1
-1.8046867959126551	-0.33225867831519157	0.8909208421104943	1
1.194483751868504	-0.9144647825715837	1.1090243560779676	1
-1.2707371267427852	0.07992168564060373	-0.5275092991895273	-1
-0.5591910718666312	1.4101658997640372	1.2716862401914886	-1
0.15449705818071846	1.0402544395391826	-0.8933011124029178	1
-0.8671948283782931	0.31307409499181377	0.6777094812020898	1
-0.3568377891976848	1.281203992779303	-1.5060109418470073	1
1.977010848520674	-0.266332303150192	-1.0985064707474634	-1
-0.5465303391798826	0.15215107832906508	0.784117985079026	1
0.9678978548289328	-0.31416605305462286	0.4098480123840088	1
-1.806413483727652	0.6441179021561886	0.9971040751659652	1
-0.017646797694098403	0.4185081941772361	0.44530954029581404	-1
0.3257614358716451	0.8191289389066214	0.8139547676392894	-1
0.552683541343637	-1.31600265124038	-0.8685408037584992	1
-0.6920699273886014	-0.2259221419307128	-1.5900713194804128	-1
-0.3677488050865318	1.775679860091335	0.5308676402816709	-1
0.024173501538877755	-0.7813292508661828	-0.9675124796548369	1
1.5356841827810614	0.22142123013503695	1.5231154695847833	1
0.9922980002673025	-0.36052234390091487	-1.3905293703475436	-1
-1.2813645104900049	-0.2845340055271301	-0.6650915036789956	-1
-0.6150013193656783	1.028145841984873	-1.7793834858248596	1
-1.2869968010559791	-0.07293830709534353	0.5017750690694339	1
0.22916583494632636	-0.6474854680044634	-0.5082698727976743	1
1.2576745247175085	0.08930596831367064	-0.29311775803749124	-1
0.2774741160237187	-1.8392639302940932	1.0329903440935755	-1
0.7587847005456245	-1.2568938551195155	0.32740708765673626	-1
0.7382594363512003	0.178698972900683	-1.1070925882262264	-1
0.3600060072052385	-1.405607128064391	-0.7612788422436312	1
-0.05246654248418671	1.8460340132678603	-1.5366703282575982	1
-0.027820018805646857	0.7273559635688427	-0.2815931564832497	1
0.11385867929765184	-1.9433363003521542	2.290081130165594	-1
-0.429102474358404	1.3357717693891613	-1.1018437443087883	1
-0.18524373543760872	-2.3112231315466554	1.351817922699377	-1
-0.5793871561372529	-2.6729486469137154	0.9649878071595506	-1
0.12301249530348271	-1.5029327819739997	-1.785675321137289	1
0.4670650481827803	0.6527307326312187	0.5739249196545934	-1
0.0453178359554347	1.7827226191877532	-1.6766380213224275	1
0.33034587385619607	-1.5322508469912244	-0.8610161766146103	1
-1.1171580818161735	0.05658023285255277	1.1673577784661489	1
-1.1426740758230982	-2.2544112354542807	0.8884001643648498	-1
1.9130962042954385	0.9773626758986991	0.8226569117423582	1
-0.05441455406725252	2.1448150780828246	-1.1982223988271647	1
2.03486707396223	-0.25535925285478095	-1.0115600677166385	-1
-0.8852463573297973	-0.11604234673798629	0.9781437218296043	1
0.3001510373616267	-1.358950343190199	-1.3389892221879394	1
0.7870979418592999	-2.3930104572851403	2.637700855839098	-1
-1.251737208692642	-0.31707334435199463	0.7203577980683593	1
-3.5546269855974404	0.8925276253052004	2.0490308708929263	1
-0.4039213331739796	-0.7136899819013864	1.016521035646442	-1
-0.9673756033047085	0.39949748263161194	0.8273673655052365	1
-0.7679714273759712	0.3751261166711379	0.7911308947103276	1
0.1476869961172271	-0.7065724565012852	-0.4123996630947184	1
-0.020028583908140357	0.9201799450520695	-0.6338610569652289	1
-0.29523606032833366	1.0099971176823543	-0.954765761582388	1
2.2068772694218195	0.11348420706243778	-2.467491202395264	-1
-0.47440492703497283	-1.1018527879245086	1.5539170597202778	-1
-1.2210007800571034	-0.05208140522221985	-1.105284064402771	-1
0.36587622740263703	-1.7212016251150732	1.0229834838184475	-1
-0.4179481834434978	-1.2384208490852755	-0.1944550878214406	1
1.0992459855429908	0.14653431187755497	0.3641935492148741	1
0.005961483284339191	-1.4544794515046584	0.3439403381768056	-1
0.442316149724284	1.2075294246364587	-0.8563632907949095	1
0.4315940509323428	-1.7922206841292239	0.9800981231765257	-1
-0.6618421196049926	0.3444286293901835	-0.6832841015552178	-1
-1.3196084125112373	0.3300767710683278	0.9104984138009242	1
0.09553552966457453	2.2073827261611236	2.102857279564924	-1
-0.10766633167914166	1.5669260344573517	1.5218334919180823	-1
-0.5946689961384587	0.059920914082534485	0.9494661085501026	1
0.07293895385634754	-1.3675235965963612	1.9997755243776756	-1
1.7229961939672167	-0.30404754663491573	-1.295600396956802	-1
0.15061143688264314	1.244309286102821	-0.33372133144748123	1
-0.16249588041097	-0.8329847971279443	1.0537098305905575	-1
-0.022178865335041292	-1.0299064823455122	0.7512300164194796	-1
2.0793212629009674	0.24745042196757427	1.1383636494658562	1
-0.8177619645837944	0.056599595857833175	-0.4276027904207167	-1
-1.1564706426833407	-0.24646582645076928	0.7702348857955726	1
