0.28601544336882967	0.7174214277214842	3.2422572893929904	1
-1.4274062393778775	0.3817112597436643	-0.5050717505867811	1
0.1804077751418056	0.5715193706006437	-1.8772048571903228	-1
1.0821835373622732	1.1545314027171127	-4.111240440038292	-1
0.09725061996226753	-0.518970194643336	1.1756423490560908	1
-1.0214215163211844	-1.664715099509617	-0.26041509546022	1
-0.8914179199973158	0.5569044047880752	2.0930495680523014	1
-0.741804628829191	1.281646068641746	-0.676577473564461	1
1.3633368602309401	-0.3141739767476466	0.2816604244901759	-1
0.35349460785644515	-0.08027594088190165	-1.9841595129745444	-1
-1.104428135704986	-0.6476839203151511	-2.046362046958101	-1
-0.8381129407658632	0.44929553662565136	-1.5071439333074879	-1
0.5380024809892231	-0.9453616617670191	0.7325304820138727	-1
0.17919904799513944	-0.21773815342542108	-1.9411444708261614	-1
-0.24658605157128985	-1.0590787743623291	0.9104634517485783	-1
-0.07778114990113319	1.4895856774512573	-1.4940223732546658	1
1.4805830800408544	0.14548788837025103	0.9169839408428562	-1
0.7361559720178247	-1.6427975797576355	0.9477904133256925	-1
0.3569280904365827	-0.5156383544644708	1.5998325480420272	1
1.4055425688213266	-1.3643506659910971	1.0034948716020167	-1
0.3047386795452791	0.24203693432183482	-1.9902776765601187	-1
0.7911658549810279	0.7177642867973488	2.5441262829640943	1
0.7684121942877383	-0.35314045113856474	1.262318751440483	1
-0.09377457182294918	0.05608317979021304	-1.0088170454624554	-1
0.26654972514875586	-0.3215996758460137	-2.153851595746134	-1
-0.24793651173372458	1.7389069475890357	-0.7772447976152723	1
-0.6737626953048861	-0.40127507494742193	-0.3976587971156096	1
-0.4890634929884377	0.22140046989266274	0.2881695019511433	-1
-0.8034445742171485	-1.1685460289458218	1.213077548375955	-1
-2.493921111721847	0.5110695330371852	-1.4319346272473301	1
-0.17095271518744246	-0.4709669256659342	-1.4918162928320033	-1
-0.27471752050887394	-0.46348914519286666	-0.2813448429572259	1
-0.5079199901481434	0.19983718969757802	-1.5978202149610923	-1
-0.2703183960419964	-0.10432325302201793	0.8145045110258423	1
1.0616138976172567	-0.214725111846497	-0.5024478136403938	1
-0.0445247368491644	0.2073205509121726	1.6334627076588442	1
0.4762903898622298	0.014074999842368303	0.9265784473918443	1
-0.4190837648756671	0.2886281572919053	1.8223942292621225	1
-1.3487176220000139	0.23443531504455964	-2.5002429394947256	-1
0.14249912680691043	-0.47843775679939293	-1.570432928356028	-1
-1.4360136689049194	1.081601505976288	1.7343733326029591	-1
0.3912829145166778	0.6365919127543465	-1.7203228047251113	-1
-1.3243441747381963	-0.38079972110319765	0.5879663547588984	-1
1.0920592240685625	-1.010405472069739	0.9822463373344672	-1
-0.06588164400634054	-0.13080042270982337	-1.3639213370018295	-1
-0.6412120809728452	0.1314679888839823	1.992846532037152	1
-0.20134211706549887	2.2324444022147802	0.7958252208980243	-1
0.556238187618411	1.1831211454569377	0.4643334719933383	-1
-1.4288148473695435	1.000972623772466	-1.1315026149188625	1
2.508173189118665	0.11135683605389363	0.7542864598442173	-1
-1.1522195520817518	1.8669524478256894	0.9380303497460531	-1
-0.589418355661587	1.4924529631212624	1.1386238734527934	-1
-1.6320324991167752	0.5494482507396369	-0.8542154421160113	1
0.2657022161770052	0.060751494124562405	-1.3548444628809724	-1
0.8921078137168161	-0.9447910472548765	0.7250906715773664	-1
-0.7842413173915915	0.2227463371506092	-0.7326632308906075	1
0.5388905244590325	1.8121891549546985	-0.5453471514918247	1
0.9940260798709448	-0.32149922525007024	-0.6009345195014523	1
-1.3952071773098915	1.175846770512467	0.8330940060323009	-1
-1.6427081333372469	1.0007166037482909	1.292077077352331	-1
-0.3321313394681002	0.33369454038277513	1.013565393992713	1
0.17533923807800567	-0.2872732441982437	-2.189349118470413	-1
-0.7850473874542275	2.012422066042219	1.0567037746280608	-1
1.4392723526471036	-0.984136242990587	0.6300377968722947	-1
0.00977039319853082	-0.06784146852987073	1.5165594213632216	1
-0.22249484848621548	1.3012718302733965	-3.0602915792806895	-1
0.1450099905503035	-0.7135681722921795	1.9451746054162187	1
-1.1963558928537918	0.006982637161332669	-1.2185280870287414	1
2.631688876060143	1.8047853231826978	1.1613765296659415	-1
0.6668473846068241	0.5265717353325252	-1.8586835508613964	-1
-0.06712577833428089	-1.6406064206685809	-0.7975155373609418	1
-2.202961959659173	-0.5520998791979075	-0.9246562657987435	1
-2.9731802901336746	0.341177050177509	1.2495187466499071	-1
1.0155110752786685	-2.166652701204044	1.2278063869915665	-1
0.21435231360366572	-0.859965860158447	-0.7762895065573123	1
-0.3778603611906291	2.147063891341387	0.6340097166178618	-1
-0.6610813266343578	-0.14937735814045539	-2.180063436192466	-1
-1.8584680907153803	2.4249601391358553	1.291457163188293	-1
2.2742882884351054	0.5211600127313712	-0.5577498655770143	1
1.172576180699372	-0.11874128271509417	-0.6226590837624136	1
-2.056065498464933	0.0814179840166629	0.41444926984484254	-1
-0.8625108950938319	0.05956271860513438	0.24704234191310592	-1
-0.8052476936613996	-0.7559069944073981	-0.886413760002761	1
-0.4025423985918084	0.029473698153840613	1.9198984248210647	1
-0.8141467214338868	1.2903596346130959	-1.1449248597935977	1
0.20374690319400585	0.18731799230163348	1.7220329187642482	1
1.6754348330332562	0.4641602727701778	1.1657351108813232	-1
1.039714180924333	1.2918322492929395	0.7669860121881336	-1
-1.48962277579093	0.18596506372465113	-2.0833820205121367	-1
1.2725547756697244	0.41274438227405635	0.2975015819912697	-1
-1.2377688249407992	0.5733944511322303	0.8976551143604324	-1
0.6512775350148167	0.6118278582538939	-0.5609885121580745	1
0.0031567911678583305	-0.7964253797831512	0.4303465996736677	-1
-0.36829399371396754	0.20241638101206721	2.1116874998666577	1
-0.08777963412594056	0.10373855373198129	-1.0336959332361884	-1
-0.900836723475101	0.9976284937088213	0.627643259245638	-1
-1.089878360780743	0.058512634546720614	-2.628240853524293	-1
1.9882214940739091	-0.8183450963682679	-0.4747316474028342	1
1.5846119623167096	-0.6535820172016511	-0.6103381976820285	1
0.6289815156728182	1.651261363766202	-0.6294495934729242	1
-0.9467645527962779	0.8979239385868729	-0.3875780217095932	1
2.1049274687775923	0.6025074013082041	-1.3528666653992498	1
0.009053889594444012	-0.6113625045326951	1.5961730784843586	1
0.26743882550443865	0.45589369631148247	1.5227621913988276	1
0.13962075018023345	-0.05014701428428123	-1.6795184530804415	-1
-0.07548091858507766	1.9897285834552454	-0.8249662342660019	1
0.6968283163078868	0.037098838895865516	-2.3549693456518677	-1
-0.1341869191440314	2.619464747615616	-0.47421232955110776	1
-0.6208050915276873	-0.06456659486466258	-1.779413431610776	-1
-0.19569262312788457	-0.27228925832629053	-2.1180595881087645	-1
-0.029852023053238037	0.15044547282887705	0.9936353123671711	1
0.3540887979659386	0.6904707882753791	-1.6098560477059622	-1
0.27865393255752424	-0.8264663219002268	2.091916979403682	1
0.3283002190833759	-0.4786433534909966	-0.15896614690835453	1
-0.1604954838865825	0.036014076199266866	-1.2849465689708117	-1
0.5360369155982994	-0.5127839068985388	-2.175705539671182	-1
2.281958260308393	0.215331227148257	-0.8017654030973914	1
-1.0102034175547858	-0.21691226316715517	-0.44307221244725803	1
-0.3712157597382672	-0.05704412130315263	-1.902352761024889	-1
0.4869985315661118	-0.14593567100055402	1.1051612351275841	1
-2.1980945698677274	0.011163365533829534	1.0267135649102361	-1
0.4257192506563656	-1.1713096832627454	-0.74673954622058	1
0.08923034167496528	0.13117505892103062	-1.4297497232117917	-1
-0.26564427140599567	0.0912254779798432	1.648455868974551	1
-0.24095215557258842	0.7724572214552988	2.4472339224625537	1
-0.30066503305457726	0.10892054682955031	1.268315863265285	1
-0.6007859280602315	0.6677335628874324	-1.9587127319926698	-1
-0.43357270229415923	1.3055246577773285	-0.3890526592136463	1
-1.83998325037021	0.6329924587733466	-0.742841042659084	1
-0.001052612956932489	-0.41146748462134985	-1.2448758816876757	-1
0.8437824003401169	-0.005360329526890181	-1.9955929701608317	-1
-0.3449842766999756	-1.5595774081893485	-0.7537214904627023	1
1.944664713995878	2.2262701559490923	2.1192311807915987	-1
0.6691331085517337	0.23010107580553985	-2.707529686788968	-1
-0.983086305362121	0.6330935251396357	-0.5749723894656702	1
-0.4788851813454977	-1.3840098377506003	0.8322754039032433	-1
-1.5912227251728146	0.5267961126309963	1.2433487199859026	-1
0.0902840021644199	-0.12205082446231622	2.124186347771575	1
-1.3548261322600714	1.7651456941243453	1.2545477108526666	-1
-1.1911016718157112	0.5415525445341148	0.23293780434106748	-1
1.0226655110264193	-0.9585033441317354	0.6184025688911089	-1
0.37160449895913183	0.6758869618419914	-2.9096813184241035	-1
-1.0148673441317109	-0.035941703664542086	-0.6121435617876405	1
-0.23328383083454557	1.0244612934085164	-0.8941541645770772	1
-0.19217777283136628	-0.8347031190885519	-0.5847012102318763	1
-1.1173902684747432	-0.31116152450343276	-0.6041220109168233	1
-0.8507934526815492	1.3828289742850206	0.9675791387049735	-1
0.3551457276542394	-0.00980970550408814	-1.2068566233882505	-1
-1.105959799869858	0.26073458558366364	-2.778987038171742	-1
-1.838753974344358	-0.2783479889120845	0.6784094988054984	-1
-0.0681582027147592	-1.518048591812727	-0.5198339983686563	1
-0.09470747288350946	0.23619461312024914	-1.6192517219617164	-1
1.4343596799316252	-0.7129216065666807	-0.9879193666284314	1
0.8779871000780801	0.1144674755621957	0.6240618093030316	-1
-1.926348943837278	-0.9725066150081956	-1.158466892535899	1
-0.9112752932519538	0.4858226474288075	-0.43034597699130295	1
0.2928388741625834	-0.09829088084350845	-1.9448983798587332	-1
-0.12149866213183094	-0.27522687524961	1.2451848221491175	1
1.0766434265653229	0.07127834915149577	-2.088862938482659	-1
-0.4886300295055568	-0.22740832432249578	-1.2246619978661237	-1
-0.7862526825740798	2.4091143336474903	-0.9649477522570541	1
0.765311045417413	-1.4212718215561624	-0.821625643500658	1
-0.7742230697095407	1.529054719729616	-0.5328523458326753	1
-1.6541666750115676	1.6300166098447855	-1.3218933314200578	1
0.34843809303539464	0.19465315456201235	1.284651868623099	1
-1.4596939589102986	-0.589408207511207	-1.2510777975292924	1
-2.0498115013799243	-0.46095457964605235	1.760620138933767	-1
0.9566355230237695	1.5691189179714193	1.37076133222651	-1
-0.042711753912011916	-0.2726427403575975	-1.0971442810285994	-1
0.6812844799672616	-1.826547008109129	1.2180463454015242	-1
-0.5376694335857887	-0.7312517803866287	0.10543417251397368	-1
0.9673937233293004	-0.31828140076005	-1.776392724971614	-1
-0.38814571676331266	0.620139435660508	-2.144389232394625	-1
0.14499139693344087	0.08061381387829528	-1.1725042217661317	-1
-1.2236332438946915	1.3312384482141448	-0.5411681876893032	1
0.15909929836977219	1.2538459788444543	-0.521075540869849	1
-0.8125353359963793	0.7753617741854462	1.591693113873871	1
-0.2869003887396985	0.5806324341354295	2.1810580555987076	1
-0.7866625615461957	-0.5894688666664053	0.39751802421340177	-1
-1.4587289879367167	1.5292456094072655	-0.49298818900947716	1
0.1312594851644496	-0.23140377344996763	1.5103876877956812	1
-2.0042514786923875	1.2506951638311112	-0.8534696146163854	1
-2.772137672736985	1.1317982928318713	0.8713552737870212	-1
-0.06271395083832747	-0.7886533588871387	-1.4788057412875306	-1
-0.6604224263684714	0.2041131901285228	2.0786056246980875	1
-0.26495654971901617	-0.2650949043770985	1.7431388317864778	1
-0.7275603446472343	1.6116441514796584	-0.5577753776026154	1
-0.9932861973057023	0.09302302180809574	-0.2640167027029186	1
-0.3800068832340422	-0.22766776839607192	1.3945491567834418	1
-2.2041406057988655	-0.39649399680593067	1.688483590248595	-1
0.45778460516337677	-1.853010621354007	1.1320230968034055	-1
-0.8349874304561008	0.8801727799241429	-0.7905001771753684	1
0.5617860159741929	-0.18230130735829775	-3.067793771119988	-1
-0.9882870829964301	-0.312805010315179	0.22601737368025587	-1
1.465083797902369	1.2333704958225107	-0.5089344012292225	1
0.7077610074863372	1.0403736356902857	1.2978533361799833	-1
-0.22090242145307992	1.5679795825946286	1.0258616143152894	-1
1.0955292054420815	-0.02898967869115465	0.6478845732606004	-1
0.1980698857690185	0.40362674487380384	1.3743527737872896	1
-1.194697918159023	0.0501716961446025	0.17945137462844266	-1
0.22495703359970168	0.4172926803537343	2.5129580199276	1
-1.3355838854377433	-1.7645023327064302	0.8361779023295132	-1
0.07648741788090857	-0.1076719596245124	1.994912607024283	1
0.1825888264118418	-2.450278538263359	-1.2153390829879034	1
0.3453503408446828	0.2702318186507394	0.31377606329923946	-1
-0.4596520699958546	-0.02737911145905282	-2.208865221713841	-1
0.9180782563878271	0.47488372570493526	2.2782274946289642	1
0.06222644129312741	1.888336783605034	1.3547512525656478	-1
0.24971846638509618	0.17446471333922392	2.7953067965051077	1
0.002175684544234774	0.3390232622441341	0.8466425219263214	1
0.24496399141443828	-0.22903646207743297	-2.139119435434876	-1
0.18043112663682787	-1.334411976435685	-2.6374318660022524	-1
-1.362206812796103	0.28275383023622375	-2.036764702882832	-1
0.11343424723367929	1.2804416076372485	1.081780469973395	-1
0.025115060048470778	-1.0649671625163093	0.36271595436654813	-1
0.03057504509404693	0.4669029472884912	1.4186105060125929	1
2.598381668663086	0.8524694338872632	-1.3129950921239502	1
0.824182827786628	2.729255495861086	-0.8017129473543001	1
-0.03803487901045788	-0.16824070076904415	1.9487938292502625	1
-0.7646269816867699	-0.36134817274501363	2.4812936529344505	1
-2.779868026348887	0.4507495132964134	-0.7402169682969164	1
-1.6248557920149644	2.021212161644907	-1.491202939867035	1
-2.110159923094377	0.01894092777009027	-0.6885477449560738	1
0.17714977653467234	0.6488347533403062	-2.5397896082066254	-1
-0.23903658009880796	-0.06423424091422215	-1.902190545379095	-1
-1.8662742707730509	-0.19962883380681762	1.2767275132790754	-1
1.663115852990005	-0.40215636563611473	-1.062318229081198	1
0.2655364837340081	-1.8807581684044004	-0.6960782376130461	1
0.48390018111429617	0.21273092845602043	-1.3561808439506113	-1
-1.2143035731031078	1.9106819955131291	1.3612077339479025	-1
1.2447110584273575	-0.9379702617229771	0.654892543321796	-1
0.17514513320055908	0.7627762250144624	1.7837637550190202	1
0.5519411461936101	0.29222133931991323	1.4681169238926037	1
0.34251816348935127	-1.1352906339886315	-2.4244773214734665	-1
0.827289080009945	0.4770487785299117	-0.5268660274348437	1
-0.03632292373318137	0.005940775508019511	-0.8195608564189357	-1
1.3112341006208341	0.4847518248247017	0.15857330044104337	-1
-0.7538233697466193	0.7855982087126253	0.4124100078400676	-1
-1.7085168334420722	0.27658902584757356	0.1666256548815691	-1
1.586094841781312	0.2800476255903197	0.8575451504178666	-1
-1.1560832630305578	-0.40112782291953064	-0.6184227431170203	1
-0.31750873850347255	1.0186919276849256	1.4969282495546616	1
0.5380428349409293	0.4158586116403843	1.5553746284309522	1
-0.5308540916419575	-0.724182412640835	2.2110304117904245	1
1.727359061463702	0.5235829115060316	1.517573189229298	-1
2.161729998185208	0.8224701346102737	-0.8659075666771227	1
-0.08867058002463624	-0.3790331486979749	1.0969660580876368	1
0.34775381416985957	1.1525877998904623	1.19832369915028	-1
-0.3904468143570271	0.07078722020771752	-1.0410158762323323	-1
1.1270691009450675	-1.738069903931082	-0.9102047856309963	1
0.5485211253630896	0.6185934140845167	-1.8132370653748902	-1
-0.5525014103384047	0.056219475302088054	1.8885283486549125	1
-0.8772176431751024	0.5550801512756993	-0.5808114668040888	1
0.9433117003887377	3.0121207705703705	-0.9180926203812305	1
0.08648280041451976	0.5568144470787931	-0.4407678466282322	1
-0.11462876617383051	-1.4095172067116801	0.8917601046390816	-1
-1.9547217670747477	-0.6298613890141347	-0.754467202429888	1
-0.2586651775369481	0.020237957619533106	-0.9844454397647147	-1
0.9097382764394283	0.3780404833546902	-0.6187425424224452	1
0.3674451794789792	0.9904714038159419	0.6836947774751553	-1
-1.051770614170537	-0.4717362884365697	-0.4585252200723325	1
0.3099572793438385	-0.3009359991724641	-1.8710077159437948	-1
1.4041215848857531	0.8871578581491202	0.6805200947589002	-1
0.8899454085259828	-0.39977230125190005	0.5488290265560439	-1
-0.5045127185771318	-1.2164094468271305	0.8160633976288003	-1
-1.3164439701778463	0.28468385677452546	-0.8210307938003845	1
0.24322292091201003	0.1683189889840788	0.8600705028579857	1
-0.30324400972441107	-0.14113194765589132	1.3340476823413674	1
-0.505461476684458	0.3400482294718129	1.4129783469054007	1
0.18192710238676138	0.20682277639667232	1.1822825921588531	1
0.3849944861130332	-0.38699239871219654	-1.5983408982399914	-1
0.5543770138939296	-0.24877105944017397	-1.3336392123246732	-1
0.6685584266885233	0.2658037028637376	-0.6809487389048102	1
-1.0854939290304877	-0.3970696668553393	-2.6085814750707175	-1
1.3059875320046146	-2.4095092395093474	-1.878138671984332	1
1.2892520179160505	-0.06518224919725801	-0.5353936679007584	1
-0.08317056251568627	-0.3025641818710692	-2.9455689446419657	-1
1.552382570295254	-0.815144340525675	-0.9252176933551409	1
-0.2566231570165118	0.06582905135713478	2.2416730194087413	1
0.11029302148587368	-0.011832878671513294	-1.7650072459214272	-1
-0.6900172126157413	0.34703898868212274	1.6615839769647154	1
-0.9269778591983693	1.0363591261071206	0.3791888814446542	-1
-0.0042417605559289815	1.039440650355721	0.8299252703535063	-1
0.6742466134559884	-0.05729512645603932	0.3209135674302214	-1
-0.07964216749226036	0.4520678287220823	2.336372322506264	1
1.3044377358406676	0.6498999592587837	-1.127543172824662	1
-0.3224562125447387	-1.4325332086831022	-0.6742231442277975	1
-0.7413442485728581	0.23205777792525845	2.91310772008168	1
0.32682462431753967	-0.28062986536569967	1.075182486256149	1
-0.17006136549898748	-2.12606752119139	-0.7920380549364041	1
-0.40879059562683634	-2.319002268609122	0.9708231174052782	-1
-0.9955478634315553	0.4063875550567322	-0.49882312285526154	1
-0.7961472407172939	1.4129222335567513	-0.30683480203803637	1
1.1490445133282294	-0.07852728142102333	2.292451828948631	1
-0.03414105823268364	-0.3510585751821278	1.2503745045561456	1
0.19021602779664382	1.6965588109292835	-0.8652077694249946	1
-0.36730046580793596	0.5366768183594236	-2.537875692275482	-1
0.10802691467651776	-2.3042501937665176	0.31807894205124554	-1
0.5878681751291341	-0.7289935080367603	0.8475699412386941	-1
0.3044443426339249	0.3586086231369678	1.4594286881636733	1
1.3107308590328433	2.0556928307478826	-0.7492054298528513	1
1.3130660836608135	-0.1574141386636054	-0.916076059866292	1
-0.476216691523087	-2.1687060278156607	1.1032963173917498	-1
-0.022835814732945936	-0.6371536481613657	-0.2148229030897838	1
0.3073246838936742	0.11238123044926684	-1.4012695820618808	-1
0.3115844963740495	1.302317843051527	-0.7050896742490788	1
1.475025788073534	-1.5001030331332088	-1.577145028402657	1
-1.8868799353138712	-0.5386380436144604	0.72699078576879	-1
0.9563162708286538	0.24387155865112553	0.39396353543876406	-1
0.6736659511384623	-1.3209973848207497	-0.7641767619097158	1
-0.9271810491949527	0.35165941650436167	-0.6411808409480941	1
-1.6980736362517885	-0.06844287385053452	0.38450710036537217	-1
-0.7568295689109247	1.0325090206615144	-0.6797782763776158	1
1.0218244193396917	1.1054530937866682	0.663213926537502	-1
-0.05327395361581886	-0.8130679572922953	0.37948171012524506	-1
1.1291762122645481	-1.7072207336172351	1.6770540354759476	-1
0.9186220885232935	1.164139532333382	-0.31151870366689843	1
0.6383365166447366	0.5106611331446466	2.2043315124925194	1
0.2796934800292729	-0.6422056442465053	1.632100353164611	1
-0.21310602394848488	-0.7041745392229051	0.6441441281252258	-1
-0.5249000135896752	-2.2354031646583534	-0.9288417146075867	1
0.7517289992787091	0.6434756389287439	-0.8573035561575146	1
1.3365759013112768	0.10382381050830775	-0.8289424014183254	1
0.7634206387502275	0.06875079019051329	2.860681503909329	1
-0.05568777267227248	-0.6280548859954904	1.8519343867865299	1
-0.11136432027198435	0.035456537443236534	1.004246801864985	1
0.7198176626818099	-1.078427389927178	0.8221788959306082	-1
0.27101881438628067	0.09031114535705487	1.4563417776253258	1
-0.15835255661179337	-0.34412274420769684	1.4916670613040013	1
-0.7199054405168025	1.6748897151016522	-0.2806455530302073	1
-0.0765686599599833	0.278970415104941	0.951469622885292	1
-0.8669341764369046	-1.0635323256108307	1.188074054204036	-1
-1.6907389159226083	1.457975372426305	-1.2435471572238987	1
-0.9446891627547255	0.2533332706240793	-0.8258690280181213	1
-0.07981371840267898	-0.30774085833789144	0.8687924809987996	1
-0.017703055710742835	-0.4276871066607287	-1.5988642519373004	-1
-0.04130662727867404	0.006860983380544708	-1.390051424756889	-1
-1.6668325900299348	0.12194228024246763	3.4978125665521818	1
0.3803969826807478	0.46950029643895363	-1.6003869549965477	-1
-1.336327133249757	0.4972361961900161	-0.7523627159348562	1
-0.28282157314117645	-0.056736569268054274	-0.9989545597051448	-1
-3.473751800046214	1.9177536629349234	-1.4776232027003773	1
2.013595922085065	-1.6794945874539036	-0.54938801137909	1
-0.336501137975546	0.1096746606126466	-1.3230653040588298	-1
-1.5776983028637441	0.22295220400295057	0.5819175081768798	-1
-0.2912198505822231	0.27353118731352927	1.7385389055019258	1
-0.6321819657164544	-1.5784375407695292	0.5837819200796985	-1
-2.0528094497106912	-1.268036570449864	-1.113366888722555	1
2.104466251094626	-1.653712808711394	0.8194360454252193	-1
1.4579403728751676	0.8863691245571689	-0.7331625438175964	1
-0.04188910840600536	0.5829946990068229	0.32381758490725815	-1
0.2077238309781982	0.39215563553502053	-0.9915116758102548	-1
-0.6212859027971116	1.8516111957500259	1.1508275493269877	-1
0.2307637898627975	-1.8493506536723368	-0.3550743709702153	1
-2.4030970191294134	0.08455050488676585	0.7166003089308879	-1
-0.07018295633960758	-0.3296290013619736	-0.9265581991799666	-1
-0.4107557696440418	-1.482581528782334	0.4581562357719697	-1
-0.6345524546634197	0.5401792497144359	-1.4607294572586136	-1
0.1424168296412184	-0.11313235347452709	1.6816589505482846	1
0.8023831089703679	0.010505752716552895	-0.33209988453878503	1
1.3354141599564777	-0.9944859991564249	-0.6519760767548886	1
-0.4650408589288304	0.45850472581089136	1.3577901916959068	1
-0.11429630293934284	-1.2148072154066591	-0.4278391753837551	1
-0.10309491994544535	-0.455906355607708	1.2194433482044928	1
-1.4502296012186728	0.1360787773169429	0.8880352399027247	-1
1.2565402997424706	-1.6452595260920533	1.114403110353454	-1
0.29336972463945443	0.23924022925370664	2.34712824834998	1
0.2393707533506008	1.7796682489628264	0.3108853406380971	-1
-1.0533972727323957	1.6098371586297073	0.9555621695300055	-1
-1.2432371712487336	0.30575219973783974	1.000459713196991	-1
0.05292573110293546	-1.9083164295019732	-0.3120553802913928	1
-0.33169364227634346	1.0662343692652256	0.5593821822273183	-1
-0.007799837279657157	0.2702316575061575	1.364272837710017	1
-1.062284447649289	-0.8983716041597568	-2.330801968191834	-1
0.014315275626030941	0.7927502520056363	2.2378174813670495	1
-0.28856242478170774	0.22164651833783777	-1.7627667335266564	-1
-0.6988616920623407	0.7225057638942209	-0.27617383355612485	1
-0.07908776642609869	0.21921286860485703	0.8015978015565444	1
-2.367265117223061	0.7934410654863333	1.7421228321024538	-1
1.7718430395760638	-1.5875270788915836	-0.5243867737245828	1
-1.604483878372529	-1.0595019559450634	-1.5618280112244511	1
0.024854092702730275	0.3907165371422907	-1.425427895760173	-1
-0.011260585341270743	-0.6537714499261239	1.5050840666835137	1
-0.08411134520971686	-0.5763951856030678	-2.587098093230545	-1
-0.5209163182957544	-0.20994496746575086	-2.4960105094281264	-1
-0.8982850602370483	-1.0148366540107632	0.6156572100005704	-1
2.8469585254568868	0.08572791483865866	-1.1376904769618477	1
1.1154335557645563	1.4381351546173757	0.5383961076875737	-1
0.2978149929477109	1.8983154851653545	-0.9302979394606967	1
1.0839071013846657	-0.2580968483794659	-0.3400307774725545	1
-1.3791693518136774	-0.14553979617230015	-1.0428270046619985	1
-0.3354786124752984	-0.11249421128056891	0.7996366547504259	1
-0.11082190560405299	-0.3726748576519039	-1.2321147669722778	-1
1.9893507738907297	-0.572985220237945	1.0944873430311632	-1
-0.26997735834220243	0.26306067798868993	1.4199493081680667	1
-0.3469404645543135	-2.6726622926342625	-1.485229251812719	1
0.0875511473160191	-0.0941291115869722	1.8476485128083713	1
0.9355982785054121	0.9448604581997586	0.5546366355032938	-1
-2.0323589598884997	0.6881642466926979	-1.328298158316562	1
0.03472279174342282	-1.2045711957296128	-0.6654865421345011	1
0.015504276731106104	-0.0033543483411874035	-1.1059444072822717	-1
0.13764581810419688	0.25839882423069166	-1.4751762790383094	-1
-0.971687347907576	-0.909414151688514	-0.7912274604881784	1
1.7359694010145728	0.7209679584064117	-0.6635938425142662	1
-1.156021736583251	0.34477998251512226	-0.7227449203838247	1
-0.551290696327591	-0.6165476079217289	2.5045207135974854	1
0.3010470318627369	0.3523839936867123	1.5787041415074707	1
1.3689946134887565	-1.5116452949610353	-0.544905760292694	1
-0.5344752966439589	-0.20853142840953082	-2.3306759497686436	-1
0.7060739386941799	-0.17296000907506504	-1.5257928863094201	-1
0.48150373156677806	2.322061530129717	2.1085782680164025	-1
-0.05007812534600836	-0.015244871492574903	0.3996554563411224	1
0.6721059334662863	-0.4370660646055824	1.7053647784273307	1
-0.4696961757155432	1.935309289536144	-0.6348924175347062	1
-2.359843312458592	1.7217029529190613	1.54295047935234	-1
-1.1191152203729848	-0.7128867445045652	0.6396605791349147	-1
0.4378431648125961	-1.0015937329739646	-3.372593951500018	-1
0.12176075561253741	-1.8397011898043556	1.471043994603828	-1
-0.2056597000909966	0.5619335041462781	1.653986821710291	1
0.013264775931192406	-0.34779745886704067	3.1647644825688293	1
0.3905376620440268	-0.18751832542907293	-1.1367434412119417	-1
-1.4743560470348684	1.312025277307322	-1.0599694019698642	1
-0.022902799474739444	-0.0782560711424079	1.8520855950835224	1
-1.0313158974222465	1.286103452980021	0.5902834831613359	-1
0.9003652243429212	-1.039302029010435	0.2608077350211268	-1
1.7003721134397438	0.005723214228084862	-0.7741734683837996	1
-0.3396667584757081	0.009458078927065332	2.132581106529892	1
0.26036668381695127	-0.10367628323241146	-1.6800812488184569	-1
1.3378886306238944	-0.07822160402002883	-0.555517739642661	1
-0.38887060807225715	0.6908832459015201	0.6033546737607134	-1
-0.8060160965800991	1.5749059541749457	1.3145907682194156	-1
-1.4307416353417342	-0.3437742769902811	0.7908863696825938	-1
2.1746780607914533	-2.1431698400500165	1.1290484222267478	-1
-0.20059997041515543	0.7681977847334671	1.5466105872349767	1
-0.39049274053495386	0.32732632883421675	-1.3787461435842494	-1
-0.24173583905806384	-0.8219638591261189	0.7531015588666352	-1
-0.03392813628907946	0.6036863424203931	-1.3545618285827032	-1
-0.6942158042436564	0.39620713364254945	-0.582426212643167	1
-0.08327446481541698	1.1388406749336755	-0.6308597580744622	1
0.21042392155430908	-0.2774233716245186	-1.492821723914966	-1
0.834914730513834	-0.3391583755774542	1.6914985851175286	1
-0.2597108257495438	0.08830068078006652	1.7708947695292943	1
0.45586689744565767	-0.7288682920090862	-3.218910215178739	-1
-0.7704965506437189	1.71195908502332	0.9004643633215358	-1
0.06027107796896132	1.7907720299041108	-0.45462513885174594	1
-0.4610014731963301	1.4971965369118236	-0.5542385826386704	1
1.8344518520825457	0.4710805709912294	-0.8799570838408602	1
1.1067386144728704	0.1812469041927989	0.3817445711036817	-1
-0.1713416870903834	-0.2569752704040135	-1.2940039967036194	-1
0.0888995281311573	0.2807383224834336	-1.5645721529788377	-1
1.6983809805249503	1.13466444992964	-0.22958511289605396	1
-0.7493920076069633	0.24308802978018404	-0.2596041956916613	1
-0.9192846901708569	0.6349928259217613	0.7292250499643327	-1
0.16017790549693292	0.42278833116943926	-1.1230691744696397	-1
0.3268370867534888	0.3842398410122798	-1.3076453073537313	-1
-0.27946311798888634	1.4311119992957941	0.9592673178023093	-1
1.8224739569562836	-1.291002696924024	-0.6378606900424391	1
0.4432497949287153	0.5513179251770084	0.23749025632919674	-1
-0.31310168220624135	-0.2818446404809745	-1.7709484016151595	-1
-0.185026107461282	-0.4708639945870182	-1.5880333620437108	-1
1.2484604573017108	-0.566481923462385	0.7910411975541042	-1
-0.9833568970653455	-0.9936354276269637	0.8584919576446302	-1
-0.25513540062321105	2.000703052500799	-0.6499734413518755	1
1.482391326402038	1.5096049975352797	0.8651936753379101	-1
-0.19017942198889914	0.12976439878410734	1.6789994438666298	1
-1.0661612116538544	-1.6832402870257432	-1.0588062377115415	1
1.082642928189539	-0.721160404242798	-1.1698041531808598	1
-1.0973578046937627	-0.5605822945509974	0.05227203986349857	-1
0.17732643260311898	-0.13163129742714083	-0.9889305971143696	-1
-0.04105316030448047	-0.50514427912591	1.470266801161049	1
-0.4977299026850431	-2.8076905285133367	-0.7747359915506706	1
0.8122073538982687	-1.911750739821499	-1.308293772041995	1
1.5263211602064957	0.7456829998195516	0.2630481621230737	-1
0.13499234570795485	0.6144372652129182	-1.3661269015352167	-1
-0.1349863449998485	-0.1706959649182114	-0.6292347556962031	-1
-0.2352463804019609	-0.13904235329677153	2.6365276526415276	1
-0.30702821879377734	-1.675933868503873	0.5661596514633336	-1
-0.4275268297014452	-1.6987552460149553	-1.5741001781770905	1
-0.9294108691105722	-0.935079299839271	-1.0570957590213315	1
-1.1455767531519896	-0.9123715316676949	-1.1871384734650654	1
-0.13164313340145725	0.37442479251940775	-1.7406293159581452	-1
-0.02113238401400514	1.1160621907228965	0.20815390121059751	-1
-0.318218841389852	0.31403093257139414	1.7258373058710363	1
-0.30012477598333154	-0.31175895627827893	-0.8706130624005417	-1
-0.5637494236351138	-0.33950959534407865	-2.1046734423324107	-1
-0.38264035899764587	0.3067446784814927	1.3930395583597859	1
-0.31989877119354987	1.0324357549749712	-0.4401786901792796	1
-0.4848476772552755	-1.3490731104341087	-0.709925412866758	1
-0.19398127334166237	-0.49499411954519623	1.4507909295914305	1
2.107417881674225	-1.497457520247843	0.9659091402513236	-1
0.19482787375542954	0.09371115930273488	-0.9055515807235643	-1
-0.3306842511918221	0.09145692979734309	1.3924334731191197	1
0.4813093681695942	-0.43459866343573106	2.2026408455818376	1
0.5842335227716445	1.6698443856684806	-0.6848834833317547	1
0.6601265921149246	0.47665765705140783	2.352782477797834	1
0.9488109457164449	-0.9647080106656589	1.0135155076787667	-1
0.41458161702356044	0.9775719804842989	0.669490109034542	-1
0.883636378187088	-0.06113461358207171	0.1345249519774372	-1
-0.4607076309589056	-2.0263638623823854	0.16696968098875947	-1
-0.4266693319191605	-1.3975117769656604	-0.8267612649843852	1
-1.5851310260091191	0.1118353065792641	0.5263005203265566	-1
0.2636995203494256	-0.10719313261301036	-1.2742966898631325	-1
-0.31082856815954096	0.6584499197056296	-1.3103196835080544	-1
1.1707063753064642	-0.1653448809818725	0.6469169679238096	-1
2.665550224670948	-0.8876562282696275	-1.79837555242319	1
0.8696082310871273	0.3954068194140616	0.500802907675049	-1
-0.1543379566983022	-0.12492195881110837	-1.1954456329670746	-1
0.222058601640718	-0.5063655468269438	1.690623688657681	1
0.849569981035879	0.8659579512038186	-0.44582239804774026	1
-1.7648890342078127	0.8963748663931755	-0.9858842719047077	1
0.5127730047038962	0.08871412824347258	-1.996584221335599	-1
0.2767861964704729	-0.8755571259407109	-0.5249143042907102	1
-0.8468533779872024	-0.05560436888982752	-0.5741963544079901	1
-0.18158779359950558	-1.2278235404541697	0.1456642215501974	-1
1.4158844088030722	-1.9445495711968463	-0.6921738387430142	1
-1.5657632269980029	-0.32117002133320605	-0.9460508602794034	1
0.8398729995990145	0.2830213553921741	1.785653587261771	1
-0.054323496706185574	0.8903811025964021	-1.6289682014562274	-1
0.12336581229719353	-0.03381276936792956	1.2163262769704961	1
1.3694392719243549	0.9041806734465245	1.4493954590116274	-1
0.4379008550925077	0.013015290580197215	-2.030913704907141	-1
-1.7685622823657359	0.6345430384185416	-1.1264861954397056	1
1.0090055508630642	-0.2373616043840545	0.6807977488278358	-1
0.06389119155061437	-0.43209555677293765	1.9858803771905364	1
0.30901979905990024	-1.0444455868387788	3.0266558133518067	1
1.2807339933816622	0.11266153253384348	-0.35076634036124377	1
-0.9293981494500949	1.0856853815144978	-0.9552069583028285	1
0.15675198167454318	2.535596260084807	0.6056708237868283	-1
0.8147251120344997	-0.9184544825162846	0.43249631979086356	-1
-1.5422081637833092	-0.7518574416063795	1.1329052825021682	-1
-1.598959187056634	0.5938183483084564	-0.9995132112117018	1
-0.9480509256444636	-0.6756571270390906	2.2083813813260496	1
0.4295862517849327	-0.0018386894181774294	-0.9554574172347732	-1
-0.40705975749421475	-0.9977627214016439	-0.6697215590834131	1
-0.3475167714614378	-0.1400786197006074	-2.7269506056971555	-1
2.296393961124731	0.8970012072063176	-0.7928554992393215	1
-0.6355075331531215	-0.1847280157877047	1.204554132945117	1
-0.8697761634218879	-1.45197577292107	0.5473549446164054	-1
0.20999808692842648	-1.1016567905071382	-0.738829880691485	1
-1.1829093768458827	-0.36448868197534917	1.0389498637449643	-1
-0.7705616221773395	0.020092292299859815	-1.301335359832097	-1
-0.5711399418624742	0.926269559389429	0.5825140303123594	-1
-0.1409609692448725	-0.40322775867998834	-1.4556251129630715	-1
2.2283742478635293	-0.4692019810275565	-0.4412186213857838	1
-0.3365521339955326	0.25027848379381995	-0.989240286702894	-1
1.1692274004041994	0.5666000701210955	-0.9815972765114629	1
-0.32324857517388966	0.17776235865529263	-1.2173947409934502	-1
-0.4685656546080078	-0.4412379290705615	-1.2460157397322877	-1
-0.7285425537041766	0.1756936845857273	-0.3672508343300065	1
1.1143490666192346	0.4053370268933931	0.6781435301677798	-1
2.010271351989386	-0.8678056504629552	-1.1942498453578643	1
-0.23832495241493185	0.5715064225962616	1.1245180696267973	1
-0.719391164630497	1.2054482914300009	0.9990394675315403	-1
1.055870029241081	-0.07061125443169719	-0.6667286450895956	1
0.13966995981856076	-0.2028459487036897	-1.9202075511093355	-1
-1.9174109572228737	0.448686978063083	1.1194223274157673	-1
-0.9285018366301747	1.7853017969464398	-1.168412026205272	1
1.039584009684569	-0.9503925553002253	0.18832062086814746	-1
0.7449209568569484	1.1218704514525848	-0.7389060184707041	1
-0.013759361243719855	-0.4518503333564639	-1.4456207155968341	-1
0.5304532862740273	1.9465408054591944	-0.2433198172593945	1
-0.26149802634824887	1.3464402990732693	-0.9675200087514786	1
-1.3765124061232132	-1.1167895980336806	-0.49155582135837284	1
1.3192879626581078	1.2764313825633877	1.4208458260098924	-1
-0.374714521190731	-0.14566820721436427	0.9855886264475345	1
0.42727363021391174	0.8280646727951512	-1.4121166827485088	-1
1.9190202678419213	1.2382724358795534	-1.0903536369533693	1
1.3971551561089628	1.106876831076204	0.952365188500269	-1
-0.7379092574043207	0.3258811955274308	1.8428471345291784	1
1.3013909135344113	-1.7386010707528474	1.2215744331943057	-1
1.2194304536342664	-0.7321326137101618	-0.6484683093152466	1
0.5587632026875313	0.17806894013964486	2.4826599562642144	1
-0.6417511256528998	-0.05970953995760534	-0.3404615477595019	1
-1.054835429012774	0.9557677143710696	-0.9201546781903206	1
-0.8537954269515204	-1.84335773386177	-0.38833104328262585	1
0.6210830294540274	2.0692254641885905	1.3042675596919275	-1
-0.2415798891604895	-0.017391288433180916	-1.528793294180828	-1
-0.9558187009977263	1.0131094327079668	-0.5736344590704645	1
-1.0385400306524186	0.3320887145372494	-2.541291787788233	-1
-2.003508746762751	-2.242241228611973	0.9354889571421643	-1
-0.6188362499128715	-0.8923744651352534	0.49287503762616025	-1
-0.7740700045720552	0.673107855649798	-0.42083484006211996	1
0.04453816287655651	-0.7064500084853286	-1.8675424637192717	-1
0.2553651516340724	-0.21174237707524846	1.4487830316473298	1
1.5061347754195529	-0.2681416273810306	-3.3115576377118154	-1
-0.6119844337443076	-1.4524897305742654	-0.2676289599100971	1
0.16676120066723443	0.48249925323402354	-1.8782229914519588	-1
-0.2871072854536309	0.08432857256220389	-2.436927564345188	-1
-3.558874888307365	0.21429275703519216	-1.489126651682906	1
-0.6046803698984031	1.6032380507372492	1.2523738745243738	-1
-0.44143132317697253	-0.17178979548438722	1.3326294443161997	1
-0.10788394101397891	-0.20320114865714772	1.6291401622553718	1
-0.7296833220330208	-0.6346954610104542	0.5107378636820767	-1
1.8911010600633043	-1.0166771255901905	-1.4000507021744188	1
0.9134253236716225	1.7058948776369651	0.8254213063699608	-1
-0.45819003848916773	0.32188941110911384	1.1137576765434878	1
-3.0598207529040846	0.3388941531008495	-1.2164316660710692	1
-1.5090680830992669	-1.8253988057464259	1.8697235163540946	-1
0.0870642498844865	0.003581399953657883	1.3109726362700336	1
0.12228255433684804	-0.07799862662995138	1.8113376750764218	1
-0.8695305261110811	1.0287311358721547	-0.8574411893677483	1
-0.40036545076167074	0.026870474688927844	-1.408085475784081	-1
-0.6628531797396066	0.21593494933268442	1.935898185577285	1
-0.2113599860306712	-0.01722209572284698	-0.7223394114847019	-1
-1.445368343189792	-0.4242212089651618	0.5133369121011565	-1
-0.59029561147653	-0.3488143785446922	2.334542632874569	1
-0.006287731638062198	-0.1860274080185406	-1.6564595445013222	-1
0.155501639057679	-0.5796669029816885	1.0211055712726391	1
0.07244597116195962	-0.28979490404830505	2.3024276821214182	1
-1.006288782816115	0.10808485207958683	0.5631311559697447	-1
-0.18976791263854975	-0.023747077537463322	1.0930289386868424	1
1.2307801433660241	1.4404851118850772	0.4724627121892903	-1
-0.5266739899804679	-1.1582562598510184	0.5502160061081248	-1
-0.3145973746898787	-0.08153964615375625	1.301135358285821	1
-0.06759925306989804	0.7303957025540693	-1.3272876282207238	-1
-0.4869846861688844	0.670930824475552	1.344976522978144	1
0.5007882531854705	-2.6571349491472285	-0.5354632040463919	1
1.4492650461447025	-0.8018287312004292	-0.9857190600775486	1
1.7206450624365386	0.43153602308594946	1.4751229945303326	-1
-0.572412500092533	-0.021023895768940305	-1.1448587338807112	-1
-1.0897630807430558	0.8779926080704146	0.5195756443944751	-1
0.6403186081789091	-1.223962737131628	2.2600412220001114	1
2.3821354871782088	0.754737164678156	0.6672437132275011	-1
1.4368690303295253	-0.10251294132298623	0.7024422158926841	-1
0.042826239019702186	1.9138534629868893	-0.8466056925319585	1
-0.2481078636996025	-0.007270567778752873	2.0805976667292563	1
1.1409037886102247	0.45435958060662096	-0.16081092208271594	1
0.09107157123908804	-0.004441242196023331	1.2233933284648373	1
0.12531643644639762	-0.447626877255168	2.332561617344003	1
0.9545531828107001	-0.41350042552760596	0.6206650283478785	-1
-1.5719103813621473	-0.31235026114704423	1.2061956193762606	-1
1.132453002032948	0.04900243738100116	0.7764931787693022	-1
0.4563819035508031	0.44703904793758187	-1.2149915692746256	-1
0.6073372951936701	0.0008631303524388712	-2.0078997623492025	-1
-0.5879557570940462	0.2845021458088148	-1.8419922122341483	-1
2.1888432523296384	-0.16963433365786731	1.3350930070402642	-1
0.35697185496286693	-0.6478671178664343	0.3938598417011727	-1
-0.34028380020742466	-0.12215752028166454	-0.9836841072624426	-1
-0.20960259370760023	2.214219218317192	-0.5307753203639315	1
-0.20863185409359383	0.3452493300602002	0.9405823048037472	1
-0.47413045875356546	1.0515682968550761	1.553320817335633	1
0.3460904335745869	2.043133163853193	1.2409188949789216	-1
0.1175855050032779	-0.19498754857647266	0.927389405215934	1
-1.245673162319678	-0.711963613235645	0.4158177328235028	-1
-2.080418985686262	-0.6214402591148942	0.6663331868714746	-1
1.053076742628258	-0.7854362659469794	-0.7772642851355441	1
-0.7907126872736105	-0.01587728706664501	-2.2494389781325426	-1
1.6783213136580746	-0.21411410746549062	0.8137978366756518	-1
0.13371660175715147	1.6973584040485985	-0.8120643919693878	1
0.6875533118908989	-0.5069148727807391	0.53558151061826	-1
0.034743476753722635	3.4031036167712183	1.2430481618514013	-1
0.7447665025434347	-0.5977592193048163	-1.7202133269814266	-1
0.6122864826792688	0.24724252488748993	2.28683124900297	1
-0.28900261360974605	-0.4506606562885271	2.302766675880228	1
-1.6655357262838715	0.7811855508968695	0.3950887084247747	-1
-0.2264998324909424	0.32782985534836107	1.7885587883704188	1
0.13388833579741286	0.15263648714646286	-0.7158250286056157	-1
-0.7529818361123337	-0.10022707428573674	0.17549416012829988	-1
1.498092758847145	0.8329820807045851	1.5608227058798152	-1
-0.1540439394937101	-0.08079230116831485	-0.8491430985892372	-1
-0.24756034822097273	-0.42916627770842486	-2.1061135781310667	-1
0.3368299130918971	0.46698971851524007	-1.7013315980469281	-1
1.6355625750021627	-0.8786774762613305	-0.6254311174839585	1
-1.197575560231925	-0.48727481310164755	0.7725836997315709	-1
0.3521682702522424	-0.004727584897767673	1.1047688439297956	1
0.3525304892149033	0.038481797274556646	1.0331091537122807	1
-1.2001437235453507	0.4810060167720465	0.8292980855634218	-1
-1.8502075262606614	0.7915366024178631	0.7190368691773117	-1
1.8938788839562068	-0.8135083326383733	1.005546702527966	-1
1.7489851233755251	-0.9630310820543377	0.6549508005830199	-1
-0.1591454094313599	0.12646645913680077	0.9712486396760239	1
1.6623545112391687	-0.22197164514181617	1.196560409225018	-1
1.6537096224103416	0.7012504972200369	1.3508699878215569	-1
0.2665577727772162	-1.4762637957707496	-1.054484055130572	1
0.2719307686770528	-1.3806021513444642	0.7908342151137431	-1
-0.7943875312498113	-1.3578262873471743	1.2333711253431439	-1
0.43557342029573126	0.17439586140359312	-2.4462630223885293	-1
0.7169289838369448	-2.227722130742416	-1.2379607186288348	1
0.39213630331883875	0.8460818401716023	0.5347650266357319	-1
2.0489069923454144	-0.4651057681416171	-0.776290374905606	1
0.1994384709784478	0.18360692794370004	-0.9869313825628178	-1
0.5739881853426467	1.9864064210131702	1.6795155465572134	-1
-1.9964281118220872	-0.06318788935543661	1.0509278369598873	-1
0.13572786356131292	1.0656458446864059	-0.7101172637285154	1
-0.45187758742739537	-0.16571763481324275	-1.0249257990013387	-1
-0.2452707681863207	1.297174735248753	0.49327260300699366	-1
-1.066567443586625	-0.5157656299353369	-0.40344574379329884	1
-0.07742116962764553	-0.15567134454760348	1.7059128567272221	1
-1.4889202847565657	1.1517191459646987	0.9107377330672479	-1
1.7743828646407416	-1.2370142898091028	1.5107143293726615	-1
0.788630882689314	-0.37384104708818433	-0.620595425081055	1
-0.6889900883864347	0.6203506339373566	-0.5874808168522981	1
-0.01564306943077192	-0.10199006762598305	1.300987028982238	1
1.339289333100531	-1.1664888779103648	-0.49955148358731344	1
1.328253379238264	-0.1512171787788423	0.46799322040756747	-1
1.3540992493393345	-0.827872958007578	0.7460149796405353	-1
-1.2973456338907703	1.5125205931707777	0.7617707681890384	-1
-0.09817884608583463	0.06640659707496699	1.0142751204836427	1
-0.022888771544751774	0.1971461724225516	-0.9610665084457845	-1
0.39447349999590087	-0.35936491190293446	2.6224231701444105	1
-1.2622913824992832	-0.8650744587081047	0.8238639186454505	-1
-0.06840396113712903	-0.18690099262304738	-1.24023439696003	-1
1.1448968413693217	1.0068411444209142	-0.6921457766906594	1
0.07919991672977851	0.4694462017816954	-1.4193140355968539	-1
-0.7121660970025849	0.19322570912022144	-1.990107575890673	-1
0.2092075257210424	1.119134521628202	-1.995019293014323	-1
0.5417911821911392	0.27575985912807593	-1.5993097794869506	-1
-0.3246951706010023	1.055106549378001	1.8673847886265706	1
-1.0853630676948547	1.1085279240831492	0.4432610506746449	-1
-0.12769096092892485	-0.36424185631234085	1.2403143663719978	1
0.9281026462237589	1.1643465440825216	0.5730947193725365	-1
-0.3927857982277239	1.3911162257060659	0.5750141638077209	-1
1.472544448825122	-1.9839362041088826	1.9088857992403978	-1
0.31307177368729633	0.10949240168408579	1.0366354549847516	1
0.1089174727885862	0.3945143166928456	2.3935833693803166	1
1.0873801373461631	0.21792746182070022	-0.7691452312998281	1
0.5824159725248229	2.360404443152083	0.574697492103599	-1
1.5448239979643656	0.15601912772131832	0.4818484848716918	-1
0.15561094818136	0.6364314745782826	-2.3635856924363265	-1
-0.4120217519244907	0.29304512223265106	1.4814633837224163	1
2.229086238437448	-0.8112868948973369	0.5684243647974805	-1
-0.08474111582607918	0.3491154815950676	0.8182890970611276	1
-1.5767086861793207	-0.9010285139020029	-0.8061494328656208	1
0.9918268048677045	1.3936212007328164	0.3759916163461275	-1
-0.4055860906041959	0.019653327982489786	-0.6949258599900747	-1
-0.5693079825979729	-1.232260206823649	-1.0178601083476964	1
-1.734513001885728	-1.22114696792832	-1.1368282032592367	1
-0.2015433503992762	-1.0651099415997887	-0.6909964903668917	1
-0.048937301665571344	0.3255191485043892	-1.424980595010176	-1
-1.2272221461986084	-0.8399783172982606	0.5425549483261686	-1
-0.2522725733392474	-0.42761796592651224	1.5981551279538764	1
-0.525525908791783	-0.0652193815043011	1.669411472018382	1
2.0422356250331477	-0.636138431593101	0.36190572485405875	-1
-0.4616312076921153	-0.20829232244113438	0.9655682944361486	1
0.5865081372009768	1.9738437814982905	2.143251227131953	-1
-1.085330099909107	0.9823615253860866	0.37764675332848685	-1
-0.19742755999436387	-0.24499592697028474	-2.5677320223920836	-1
-1.3287423858013012	-0.17674798456303226	0.1534666462398779	-1
0.2520684457341748	0.08636059651499893	-1.8592950859686956	-1
0.7169476180254198	-0.8113230160051469	0.1170829408333922	-1
0.6060351259182943	0.017964814524480916	0.36342889533400946	-1
0.9741746284906988	-0.015703951192947416	0.7094962181814294	-1
-0.012226060641962626	0.6018616389588458	-0.3305259596392272	1
-0.42623630612081637	1.9028864892691855	-0.9256083907400005	1
2.8253896443966844	1.7237966821000719	1.1770218561919188	-1
0.23377135392278703	-0.2915533459165802	-1.6842490886378536	-1
-0.21116124280978898	0.6071823590046302	1.6498520071585876	1
-0.4032760769342611	-0.29192128714574783	-1.6990252831151569	-1
0.3684855131068819	-0.7245002213289684	-2.3099444419268518	-1
-0.502961863162814	-0.39713710453076106	-2.7072691093835695	-1
0.10259892533786891	-0.9134079488675578	0.7697461959345819	-1
0.5356314395877617	-0.6522156335374615	1.2731116077480635	1
-0.03811656339258274	0.023400425144091366	1.4115942594521576	1
0.02490668519231612	0.11932882920300565	1.6452213146931314	1
-0.4123546676280449	0.45793156766168014	1.6150214783738257	1
0.9030673435031858	0.552397989714222	0.6473750516675836	-1
-0.9104823128521065	0.4488425854368709	0.2982684993225562	-1
0.1855874156307522	-0.7677514290054018	-0.6240906200698526	1
1.0951953773575027	-1.0858859144151045	-1.0935738524246263	1
0.4695233001008939	-0.029104737538796402	-2.5086442699228897	-1
0.3651082451280862	0.5440995590651534	-0.491813167410839	1
0.4567790682435291	-2.5665733703864992	-1.2233735068956975	1
-1.873037792650735	-0.24581871936444555	-1.0839049575570694	1
0.42600531273520625	-0.3214485832124878	1.1137694453047249	1
0.1655666908169162	-0.09777815423547363	0.8557001710208729	1
0.6667910151270106	-0.7537442661656151	0.7005942555070641	-1
-0.003522370525767952	0.1896898161084146	-1.379317991184493	-1
-0.04770091665365253	0.28616373861244776	-1.0222214035253923	-1
1.5108334311977547	-0.07692153237510306	1.0224497678246227	-1
-0.5559341699820924	0.09213041705104057	-0.5879917441933701	1
-0.3025177312441374	-0.34727864024199306	-1.0690813523232685	-1
0.0762230699120307	0.31523958194665264	-1.5750134808976008	-1
-1.0714211779063527	0.3399377113512237	-0.5732305085859515	1
-1.2407716581679094	-0.6701161835305632	0.3944120622788078	-1
0.1208713840262963	-0.46041828283054315	1.5049614838183283	1
0.11067430890677372	-0.14710659037314497	0.8059101409976965	1
1.0932815930144464	-0.7160084270228468	0.8004120134298631	-1
-0.1611893622529591	1.4438052424088428	-0.9520458967001691	1
-0.45369478519397366	2.1521630807677563	-1.181809973495247	1
0.9263315315584744	-0.5497789897537602	-0.5306815020459992	1
-0.9850642084508776	1.570840717181528	0.5753857400616759	-1
-0.37120089083218905	0.5547337938468234	0.4747203425883771	-1
