-0.8309593275452626	-0.21627470730521142	-0.6094860390525016	1
-0.2292636988443603	0.030686982582410222	-0.12737013665079458	-1
2.239063637697377	-0.9258528274437611	-1.862106006228859	1
-2.2550937961818995	0.24731248691743965	-1.6047244365725704	-1
-0.9218808999780536	-0.02161510071747061	0.5006799476238251	1
-3.1075636155981368	-0.26122852417191306	-0.38815478482565835	-1
-2.521814706157353	-0.19170286642671297	-0.32637007749087243	-1
-2.822447684135807	0.14551901588348762	-1.394865740910154	-1
0.8947241786054762	-1.451089223387406	-1.4793392643977208	1
1.196675583277418	-2.0590364022180054	-1.7751411022725259	1
-1.9879417038271567	-0.043032873859901344	0.45514248022435083	-1
-1.9295969245224769	-0.9337787533945878	-0.2106927768594533	-1
-1.5641927607673871	-3.264341263554364	0.9599624987215645	-1
-2.5899317011123184	0.1269656286793946	-0.819461092747933	-1
0.9672498241354337	0.10788931036226493	0.20589918276962696	-1
1.3912496885617127	-1.1408503571530084	-0.6851117929914253	1
-1.5221664236078745	-1.2503183802383726	0.6020142864472542	-1
-2.0563361347053006	-1.4954699919573509	-0.21129879235613946	-1
-0.44808814398626895	-0.17354028017122416	-0.01290774509284582	-1
0.4615077716860312	0.25935249998339965	-0.7360758591943302	-1
1.815180127397861	1.0053666092637512	0.8121483636659813	1
-2.4767570069165004	0.323980573334688	0.8625787695992577	-1
-1.8120735062942446	-0.7431211425937342	1.50261092867908	-1
0.6884475573103971	-0.10704068833775655	0.3356719863690263	-1
2.561891229428185	-2.0237633604448364	0.20755252751591868	1
1.181525250789877	-0.8926691233452978	-2.2224084385235416	1
-2.7565915489947477	-0.11477235762953536	-1.9140437893345679	-1
-0.9830670761922891	-0.9711202650262392	-1.0926710359211587	-1
-1.8039649657783092	-0.1351707780486607	-1.2938150061104674	-1
2.5181442680435158	1.2786746092248844	0.552685874878342	1
2.64726402090494	0.22999295525163088	-0.2646738175056378	1
-0.10093949987272861	0.06927190104446412	-0.09747289458605808	-1
-1.615554646701579	-1.4298175782642861	-1.0817806404567596	-1
2.007027271181042	-0.27586833881218586	-1.5857166416425013	1
-2.1501539490031494	-0.48875396395208615	-0.018084902798802486	-1
1.3184084522362811	1.895603210767406	-0.34944015601973183	1
1.1652873292302337	-2.257779674519458	0.21449801665894586	1
1.8325180666074379	-1.7249142578349752	0.27917554147641427	1
-1.5093557878979549	1.2106944660567167	1.022366728377889	-1
2.3487206456595513	-1.280774806886452	-0.02484881513263935	1
0.40442792816093676	-0.596507538776306	-0.698132729244243	-1
-2.4405274932338346	0.9700796590335621	-0.2599756260872192	-1
1.9124191759253826	0.23455839531337985	-0.611306618702077	1
-2.3034405102745037	0.9628173458121465	-0.25878752624545837	-1
2.082076576043464	2.8485397853233088	0.5119323950043376	1
3.1835920984545667	-0.589241613253931	-1.2511023328935273	1
-0.18058020916808834	-0.028102731654083037	0.030083038260896717	-1
-3.205623658275481	-0.2207023681970103	-0.9842784844318792	-1
-1.21080021592636	0.9409567075261555	-0.9203292956209822	-1
-1.6837264784026051	-1.1342038157258274	0.4351729676390851	-1
2.255462310969551	0.8176522050748085	0.48972802212383515	1
-0.33533224244885423	0.5644101571048938	0.8094538775415627	1
-2.7160159229466774	-1.2282232040282262	0.10743505398669873	-1
1.8240316719331098	0.4963904828242826	0.3375106810561613	1
1.7487458728105976	0.9610971746268242	-0.7951847841137415	1
-0.9078094455262337	-1.5358921229867226	-1.1553659141315533	-1
-1.557150612894998	0.7434475925406101	-0.035384520759558384	-1
-2.7873201683153965	-0.5985700344466598	0.8347508339434331	-1
-2.799255732168379	-1.2435738503753135	0.3911867447583719	-1
-1.3154236862364286	0.8692941158728464	-1.1965532658009828	-1
-2.0066962753202247	-0.7184251907393433	-1.0693891599410852	-1
-2.525556398681826	0.6469677451728909	0.4335330166685883	-1
-1.9804305643726405	-1.1181099958413228	-0.10518109164506867	-1
-1.031569323770409	1.3557568733208174	-2.5055186721168297	-1
-2.7717551045249498	-0.08280889236541744	-0.04653929121402824	-1
1.7480745773232034	-0.1808940473551368	0.09082877206845558	1
3.244877344930857	0.04559347055109125	-1.410956558422609	1
-1.780610924242906	-0.8338822407511745	-0.02637136837132304	-1
-3.282547193346604	-0.3109418874163074	-0.7937406169649653	-1
0.11068849204484021	0.11236956222432214	-0.05412908868080656	1
1.5643936076330356	1.2210726822133002	-0.2686555866527062	1
-1.6173428208752	0.21436929958603113	1.0415740894864174	-1
-0.7266598859818134	-0.37634416276237953	-0.4499039922965598	1
-1.547187074122176	-0.3272750001894369	1.177695381129391	-1
1.0055000888310093	0.04560162888160064	0.590677183962222	-1
1.3410641168566695	-0.669108341777343	0.6392911959573536	1
1.9133994269425045	-0.22976435739452794	-0.2750513467398581	1
-1.8894501996092299	-0.5222319249551436	0.9389900338161047	-1
2.4672908668032645	-0.31814510111121697	1.678529918341575	1
3.672207429318252	-1.2998473770916052	1.6533576579554765	1
0.7250977261612577	0.3894555407332137	0.7689823475124038	-1
-1.2183871679100529	-0.8840033772048779	-1.3286950629301497	-1
2.286073074623875	-0.8695762083616683	1.4020866497130804	1
2.2675930231387933	0.8740488246631712	-0.666084074205475	1
-2.111996840272714	0.9873207900613216	0.4256260361789577	-1
1.6863619576828643	2.5710563305873824	-0.8467962172479115	1
1.386138971123994	-1.0348572345193074	-0.929472110860383	1
-2.05398859648826	-0.9827421253430532	0.07891310566978921	-1
1.6439584459991228	1.1491956078928007	-0.6681375226971701	1
-0.738624420287563	-0.8244308657359865	-1.7861494372935895	-1
1.0883693763746722	1.9866862023882614	-0.6986444214363128	1
-2.1863977151365144	-0.05254557479129597	-1.2754116507375184	-1
-1.886860981217534	-0.2877588419696059	0.34943503341554	-1
-2.3775151028442942	0.3278056632495468	-0.9704028739495165	-1
-1.5228498199379201	-1.7739361690438438	0.3353914672826414	-1
2.632391119002822	-0.666140771272728	-1.456946020407833	1
-2.8396025092943002	0.577634084323795	-0.7486764603645731	-1
2.7703010153325645	-0.8324417053433191	0.6447742602778691	1
-2.2938484478824788	1.6809232705286494	-0.6575018056499695	-1
-1.9490738360961455	0.14042900111263448	0.3207298897866825	-1
2.098072581905995	0.5481178686751241	0.18864077708940796	1
-2.4979090646555515	1.0562952301410844	-0.3941060152212097	-1
-2.5840390702965186	-0.30135286481306983	-1.0557123596000204	-1
-1.2756638309460129	0.37952641828701816	1.1529598708890132	-1
1.9021083890030699	-1.3362581637283344	0.7631617358757178	1
-1.288770712191722	-0.22090866502135076	-0.5074902260750916	1
-2.6789607874141055	-0.5563272775686164	-0.46625364623872695	-1
3.93466180630746	1.7441826167878334	-0.1369355669600755	1
-0.9253238273644033	-0.46270821285897334	-1.7375948098297849	-1
2.63326213606582	-0.07181009538940228	-0.1491318232048116	1
3.530810300403659	-0.4553450476582456	0.9204413932814618	1
-2.42250713087454	-1.393082663278911	-0.7810914484420555	-1
-1.6510450192444794	-1.5945979853506516	0.09472834525395847	-1
2.1379958976481053	-1.9202503961741126	0.6886814408943174	1
1.1590569411696074	-1.650232119505838	0.06995316922708132	1
-3.2906542242123176	1.721809191789227	-1.451934793376617	-1
-1.8333488173177597	-1.2655217513997221	-0.7363784135498254	-1
-1.6149378257719427	-1.3041677936600895	-0.8438163165128061	-1
-1.797522710215194	-1.2482832997346427	-0.27895545826115614	-1
-1.173800751126375	0.46562053721000257	-2.1728197303645884	-1
1.2744686168931458	-0.632575018910785	-1.472784848941933	1
1.7262230547435693	-0.9957629183321143	1.848905147323929	1
1.102394193972066	-0.37765747998555954	-2.09064503371928	1
-1.8432635884712678	-0.5835576304366166	-0.3509697200464473	-1
2.2907817066581813	0.5856480753149998	-0.8720005305125336	1
-1.0308877411768462	1.4692490219994987	0.18796489503044564	-1
-0.46761038131760996	0.6631038380079332	0.6213548002118312	1
-0.349661919798983	0.5345664985118791	0.5045524642241835	1
2.3236506158706924	-0.7709466227113296	0.1287431752622537	1
-2.777187294172703	-1.6839984939889232	0.5061347348105006	-1
-1.8867817952176922	-2.100536007905825	-0.33521612381159643	-1
-1.0575207893318115	-1.1028634079925317	1.0631457730234288	-1
2.8042520218661586	-0.5772383201025424	0.8265869208279185	1
3.3012384903248684	-1.0022857154789946	-0.8672041016228852	1
-2.445895513808052	-1.5389505793335554	1.2032470997245666	-1
2.3871358741780084	1.6041064552019333	-1.0134331744705605	1
-2.578172601815936	-0.0017272353679964039	-0.8833785930683586	-1
-0.9995371801058139	2.2425372531878494	-0.2263716002941885	-1
2.6417556032169514	0.38907446623393527	-0.11238498027787158	1
2.320314372101963	0.15301985964207127	-0.12881284396992315	1
-1.439578734201329	0.6761460374003248	-2.116442102861185	-1
-1.7033283840103772	-0.4065707411118152	-0.2515132817597867	-1
-1.6564688632625395	1.5294602120126917	-0.9425155760043964	-1
-0.7370810502057649	0.06408034140203776	-0.3185349806888788	1
-1.5012164504408068	1.0189349446221818	-1.9615741135576377	-1
-1.7916586464304194	-0.16967743209636643	-2.1474704152349364	-1
-2.449114394069415	-1.9362236632567766	-0.10741956553932944	-1
0.7773187193205771	0.7220603735049651	1.68625165625141	1
0.7802507954625844	-1.4397811765168718	-1.6287934717797434	1
2.039738044988144	-1.3867504473165064	-0.45966874782160416	1
-3.9353440200180687	-0.5225336748309534	0.4785064185507203	-1
0.7384320773753017	-2.0233050024193306	0.3142901031725643	1
-1.3308229354333168	0.9829007686152527	-2.51929468511372	-1
1.5554629944785043	-1.3664285067119972	0.5914276966315417	1
2.9596727990282967	0.047428007367470465	-1.452860584828956	1
-3.419438352479273	-0.8233862443380753	-0.5000053179814057	-1
-1.7047731531682606	1.0238097273717028	1.1387168780962489	-1
1.4841284043389749	-0.34062497617358845	-0.4239964458575902	1
-2.6803980647535557	-1.6969691957055781	1.151965444722331	-1
-0.7469560693931419	-0.049252313021217395	-0.1830818021003455	1
-2.037630193364429	-0.020248823782265415	1.309057469753808	-1
2.1136908854544916	0.6335665457447766	1.044993536411719	1
-1.4801588966287431	0.6206518287693639	-1.8061782032367	-1
-1.7371946141916774	0.09780706412602089	1.7855915944040668	-1
-0.2767033296600671	-1.950272245390676	-1.582153716027272	-1
-1.6327638930421706	-1.8180038172946995	0.1294746096725073	-1
1.6118231145931645	3.2373098642181475	-0.07459463753175459	1
-1.8307415078121416	-0.7302646930761105	-0.012782391461462839	-1
1.9916093270463844	-1.0918408914601716	0.6151692566593615	1
1.5595417592907193	-0.00806933193389033	0.8541926369441954	1
-2.7274984497776185	0.31459791780624163	1.0646016559943854	-1
-1.3176055412128913	-0.24597402482054226	1.3183108705526576	-1
-2.3331995361287	1.843025960148906	-0.14665949888858845	-1
1.4837415850629798	-0.03546988383105523	0.8976862838595091	1
-2.8264663206451477	1.4041823424226947	0.5477438846464252	-1
-1.1501559180912888	-2.0340477337407035	-1.5603926975376996	-1
-1.673123657188381	-0.50223868560868	2.1507874100878195	-1
-1.6397095902464291	2.0829191157175937	1.302152367153116	-1
-2.523494533114717	-0.9126704082383752	-1.7868306906131157	-1
2.1430265792601726	0.8485524161966165	-0.20017541570506264	1
2.1130699611814694	0.8082714682146158	-0.1425627676656612	1
-0.4095257979132339	0.2598841655706766	-0.07419740721732096	-1
3.0226957942675585	-0.5176607151035637	0.6721907625975863	1
-0.7094002859965346	0.14484016910881675	-0.5072873022357064	1
-2.0594299523809854	0.2338987057759619	0.06706500679368112	-1
-2.2162517990448456	1.234923688561538	0.15999539302001706	-1
-3.6524601221271578	0.002416388089262272	1.2355972324354954	-1
-0.08360607170038453	-0.05889627374880263	0.10380717865188321	-1
-0.9854090998836764	2.0926973983954236	-1.0914486669249515	-1
-0.399899332980881	-0.045159587603878726	0.05103400085652824	-1
1.8934637521650495	0.9165474545851469	-0.17885788530404667	1
1.449951741457028	0.08653255855699567	-2.061072903758603	1
2.145727190938319	-0.5693550927437027	-0.5354900727880559	1
1.8434398015876643	-1.6637115386906913	-0.30521580887191924	1
3.004863733922524	-0.25797325718161246	-0.3764591843559298	1
-2.379732000266814	1.4148817318355815	1.390312919689773	-1
2.0485631385191887	-1.6862361764031402	0.801298748689435	1
1.7273752114465353	0.5204019762047166	-1.0481910776662116	1
-2.063063762482259	-0.14024920314148748	-0.0663824783684198	-1
2.502213298289848	0.5176275436441994	0.06045331119288893	1
-2.6153025576222877	-0.2806841343006915	1.3893851564571573	-1
1.9263145483886992	1.4960910931073832	0.09943673177049159	1
-1.11060639452733	-0.6818891224921912	2.075405003826233	-1
-3.0740254568619063	-0.43491161808129064	1.0375184911094546	-1
1.9680483963701993	-0.022786115507949387	-1.5307513954798744	1
-2.573898677566945	-1.7107416566446585	1.0676106461286063	-1
2.2362192103022096	1.2133632549756834	-1.571975025494475	1
2.2441039464666797	1.0778335684948745	0.39767874821359267	1
-1.260739511807864	-1.398819181252152	1.1311752486938516	-1
1.172304211423201	2.910497470441491	-0.2945087126178255	1
-2.6717155066284635	0.39904445440097686	-0.6057494375865417	-1
2.360247021984444	-1.3200749931380982	-0.6374430281104921	1
0.8143025587669568	-0.30130045768768093	-0.01164276501041106	-1
1.1687938020259743	-1.023222225216769	-0.9499806817954254	1
-1.0565051839209938	1.1212513853406063	-2.016720520965525	-1
1.8021835226544862	0.2897460799175268	0.11738863228181716	1
1.309671154447149	-1.0477001513403945	1.74514349814371	1
-2.8514495552925356	0.910905883445531	1.8939887551634382	-1
1.8879402313328666	1.1088917338371302	-1.2460510569666416	1
0.692513721432021	-2.2372931342609466	0.8785508357211098	1
1.838912283998566	0.8364025912172578	-0.34303984658836584	1
1.7408361160554595	-0.5684018034208592	-1.3090246427040597	1
-1.3118967952292966	-0.7645022943590577	0.9058690251874325	-1
2.3457419548258196	0.8020861967232483	1.264491414784029	1
-0.947713113557485	-0.24414317677478561	-1.6048976946814706	-1
-1.6028423976637232	2.309349620094845	-0.8755986465796023	-1
2.204807586139125	-1.6957210986446718	0.5429596896659898	1
-1.6576081510570924	0.10355518908678277	1.1842813151562737	-1
-3.2003303107491448	0.19098616450364264	0.06711947432282554	-1
4.038339168551843	-0.622295704305853	0.6551257193594849	1
1.7492600396621414	0.92966969664169	-0.5899935240704516	1
-0.2468705347455459	-0.03083999450984842	0.07179308372601619	-1
1.268628223293997	1.009023340534385	0.8618183766795703	1
-1.973488850748973	1.346968593415761	-1.5057671252902576	-1
-1.6804815953272791	1.3074433963473417	1.176227676472971	-1
0.4367117347677435	0.6627647787900193	0.7251956124793497	-1
1.9430112722162391	0.815817840181246	-1.0700688623914747	1
-2.5263439923461193	-0.5764700820148154	-0.22578986896788922	-1
2.3178076656189304	-0.6540932430690156	0.35680501038578594	1
1.5037636130300083	0.5485850123750579	1.5824145970398344	1
2.276662999174005	-0.2775991105132673	-1.7763404486310304	1
-2.382672560756509	1.457013824711492	-1.8168807402005183	-1
-1.737220433980355	1.1961624276426022	-0.06149221678981995	-1
2.604295866537256	-1.1137253707207615	-1.3646845964997416	1
-1.7169905328994095	-0.10295957510294694	-0.6965157675760996	-1
-2.072423422308002	0.1855947895022106	-0.7725451095053084	-1
-0.282087914609733	0.21966116144720882	0.11464663150031994	-1
-1.7738734117107862	0.2885997093696713	1.0535048080846174	-1
-3.026769147306682	0.549370434718205	-0.42339866629954487	-1
1.5204997699161409	-0.20942995922071625	1.330083484832187	1
-1.9058240872886838	-1.8114855830231122	0.46480073201366434	-1
1.2346505626884106	-1.5814375088842965	1.3679429906410498	1
-2.0295936472656093	0.11873260538723202	-0.7562871412590155	-1
1.1223637481030215	-2.2029184396896304	-1.0726383266228579	1
-1.5481528129679134	0.25604243703379015	0.972548155829241	-1
1.2812007684108575	-1.3785876719597423	-0.3262132144009706	1
2.876752129216066	0.39428037565827934	-0.08110330463153356	1
-2.2336949302403126	-0.04920391999778692	-0.8934912507666266	-1
1.0067209221528164	-1.989314568792677	-0.9180426144736569	1
2.4992382481021567	-1.3756917092339993	0.22313082924150787	1
-0.9782429714216063	2.129641868315514	0.23731872610812174	-1
0.2967386513225755	-0.30471739896989675	0.12028424733539556	1
1.1160438973788505	0.07276944213294664	-1.4686378383023393	1
-1.8711569350769175	-1.5216170851360786	-1.206445593939263	-1
-1.2613705883417619	0.9226204417656938	-1.4393404258420437	-1
-2.3119611626529077	0.2995133314570617	0.8325959725106675	-1
-2.4498422583847477	-0.2197564008271916	0.8798138900492474	-1
2.004508297079001	0.25549531803526926	1.5904974851401943	1
-1.4473667914426427	-1.7689784860707782	1.2055113064536511	-1
-2.0761621059287427	-1.175718527183193	-0.9483032125334931	-1
0.7899880203745933	0.24146896269557258	0.12207230443866622	-1
-1.0709047898576087	-1.429783582879483	-0.23846533930523234	-1
-1.0895055798266986	-0.41650865540987053	0.505312750506783	1
-1.4964050571433072	2.0719197829345473	0.9648694072098203	-1
1.6865532810733428	-0.7044548339195468	-0.8173654136778737	1
1.7630079105022223	0.09170150475548616	0.331944898744821	1
-1.8479654571060213	0.04685910932295331	1.3990575257285824	-1
0.21000035752334523	0.6504238887560938	-0.4518696227245446	-1
-1.5224054710087385	-0.6399739865486263	2.1104605966006	-1
-2.408895765938098	-0.02201938482468262	1.1226575501459701	-1
-2.5163129438093654	1.0189190676290163	-1.3475413154837992	-1
1.7327883299009217	1.7799789512983883	1.6109112110110027	1
-0.16259866681119992	-0.1246276588828984	-0.15337184847217808	-1
0.48714116409435787	1.4061511223622736	0.6971518704581536	1
0.8549979319195975	1.4723716080757079	-1.0317826349279136	1
2.228528784527348	-1.2006225557081645	0.4913860726744222	1
-0.12842222292487898	0.1988057988135678	0.20896405223552109	-1
-1.640956962321317	1.7069319852810225	-1.500287142834898	-1
1.208314239999328	-1.3797124047661251	0.3052158931290308	1
2.664815379423923	-1.0904532960930584	-0.9320606454409921	1
0.22939297381977145	-0.20373141054707578	-0.03819064255728381	1
-1.387309444845382	1.5896157975042953	-0.7929463076255531	-1
0.7485245054271217	1.9024286696127934	0.5652793086338223	1
-1.5986382096584024	1.0219837660097508	-0.5451088466467255	-1
-0.6222258273376879	0.40439845082028053	-0.043315842707378066	1
-3.056762475827907	0.018005228112006968	-0.03547818773110779	-1
-0.5467729076020545	0.7355972744405594	-0.16189015811728383	1
2.127677785850449	-0.12012505726016297	-1.8313788078167292	1
-1.3398664423763296	0.15830762132773143	-1.3178348079074054	-1
0.5009690472644949	0.013296836298063199	-1.0282654087370335	-1
-2.0565859358102863	-1.4703789525342659	-1.35886956902315	-1
3.5051080042193874	-1.0820128057089256	-1.6453914225408903	1
1.7861616936237654	0.5507507943057054	-0.8562552567050796	1
2.101155621253701	1.4938153485130723	-1.3063131564584367	1
-2.2801005697329066	1.5873065470423593	1.3180913732614457	-1
1.7267238818401414	2.904707881518377	-0.7129213963602701	1
2.144573911495239	0.7046327493639191	-0.21427079306580354	1
-2.299001146194717	-0.03695822241856344	-1.8781283117943666	-1
-2.002901505608947	-2.057473215151452	-0.0781663825350396	-1
-2.007303498121222	0.09219174758075722	1.839585125998892	-1
1.9148932094216875	1.1945304070294018	-2.850455480869553	1
2.243239140965622	-1.401457214488528	0.3432721455028116	1
-2.0417501505881286	-2.2631911274084238	-0.5549981988360133	-1
1.3769874322403997	-2.2315953451384245	0.9561478155728063	1
2.5006977893455513	0.10870403399485096	-0.8292743846542705	1
-2.272028006977732	0.10273617657439071	-1.4195237487309835	-1
0.9034685185706781	1.60331030082478	0.7448178041053284	1
-1.5644323131462625	-2.803115943292676	-0.14912633673825923	-1
2.765686090269876	0.3122452908088662	2.986699460826403	1
1.4113668599638711	1.4490473638358072	-0.21690188774426675	1
-0.7497845061558817	0.9518081524378887	-0.19321348864769322	1
-2.2903246351207387	0.29435761209052375	0.17945696886701618	-1
1.4574797269358553	0.9908375116303998	1.40500583325476	1
-2.103923574279482	-0.6563354274900033	1.046237062420838	-1
1.418184550212498	-0.48643942178489347	2.20695875919259	1
2.156869619773287	-0.07914973233089809	-0.42084103135586876	1
0.8853846240069176	-0.4243826429551555	-2.528714694431174	1
-2.510360755632338	-0.33355990419518966	0.8482086497847828	-1
2.0819696604740185	-0.22217286259344993	-1.8958228052693256	1
-1.6215744565727015	1.1266395615254374	-0.4859854663483681	-1
-1.995068606554204	-2.3159832579241217	0.7958595121149338	-1
2.3353757444958765	-0.9649632013157405	-0.1488546436891183	1
-1.3152472066865237	1.1889067485261677	1.2307419173282312	-1
-1.493402200807621	1.0880444674025986	-0.8376487075482788	-1
-1.9837034526941224	-1.3358107176899257	-0.30472235335061393	-1
-1.4146176691066763	1.1138150686519697	-0.7152613729904261	-1
1.0124579370430764	0.554077557568481	-1.5062800870807105	1
1.0247735823895452	-0.35526016745261835	-1.5127617425064794	1
-2.036727145318458	2.7787211438575357	0.639301367789497	-1
-2.0318621912271495	-1.8158859711725908	0.4513981228401808	-1
-2.159662238386905	-1.3141939238281397	1.3794488006347574	-1
-2.402993249482589	-1.7671458650992613	-0.9241279327398179	-1
2.5323317960369702	0.4062299310159717	-0.3448393989197796	1
-2.876929402276001	0.7061119286618293	0.7099103886106779	-1
2.364121301117883	-0.9948611324605627	0.42379607552062803	1
-1.2578273518605516	-0.7476176905613205	1.391584228550849	-1
2.1032076486678775	0.19615097634277	0.961736998277496	1
2.2191500232362276	1.3695561228424753	-0.5588219590377872	1
1.7381860650862622	0.5096320790442058	-1.9358348469495483	1
2.2242299106853607	-0.5309972827522832	0.7764423082145775	1
-0.9721349752740874	0.4559301662875716	-0.17441111800818954	1
1.7880169319393069	-0.09052627294891835	-0.8139905461992039	1
1.7416484048157093	2.110753925392955	-0.24112647601234605	1
-0.7917320384330062	0.5080275918928707	0.0380502151495865	1
2.2454268069915146	-1.0266001689860296	0.1387018103768289	1
-2.4557455521769977	-0.8811123050985415	-1.7529041589450807	-1
3.0198373743752107	-0.5792983482861949	-1.3635636100912776	1
-0.24394186210051041	-0.27600000318149637	0.007935963652650205	-1
-2.146010731551806	-0.47987306387297424	0.17121516515666058	-1
1.4370218163786	0.589123086602933	-1.3687734016461717	1
-0.9494257118266657	0.5223453207779284	-1.9693283366371952	-1
0.44829668197879524	-0.5111310578590177	-0.4421407346641987	-1
-2.0413512809202694	2.1776104416340787	1.9482983658982798	-1
2.0927903445969074	1.6743348798803142	0.7795562018197604	1
0.35691377422569937	-1.7188209562425898	-1.5812258468535874	1
-3.637300400260463	0.15449881454296063	0.9314431333495996	-1
1.2610275291509794	-2.0098254630090224	0.9736456144388193	1
1.3563972311999948	2.4873478553220068	-0.3677736354281464	1
-1.8648252611990346	1.0935688516640627	-0.667610970424005	-1
0.5462745048765403	1.1377301596821912	2.366237126797635	1
-1.040999949613634	-1.561591660062983	1.1618961033454303	-1
-2.9213896110080246	0.14814245262743464	-1.6700522167620644	-1
-0.0963617657765706	0.032942273284869636	0.07283778879476087	-1
-1.9583084058321043	-1.9091146533019963	0.20603254495733703	-1
2.2400600443768974	0.9927153459146931	-0.3413792311994979	1
0.7176911609344265	-0.9834786998711528	-1.5769117181645327	1
1.8323242731518488	-1.5494734505032524	0.10801013270851141	1
2.066074512149185	-0.14229989219666442	-0.40923793509870754	1
2.507223930365008	1.4937080787685826	-0.8616989801059352	1
-0.7951171631071129	-0.40034243998135566	0.4317817762758008	1
1.2440980172684002	0.6530781330612278	-1.8300510416488418	1
-1.4752105592517433	-0.18219470238823	0.9423181793140936	-1
1.1644100263871144	1.4851051839769387	2.418272454131285	1
2.1421775434973553	-2.183383467255769	-0.7875060890811442	1
1.6785309519353246	-0.017608631491307987	1.5033754088362015	1
-0.60414410082113	-2.107819850484033	-0.37085816470463295	-1
1.0762623631051171	1.038684813687839	1.5563111672110133	1
2.3275365790541147	-0.4666720804724679	-0.3062745951906318	1
1.5587438579589619	0.5908188065130476	-2.188530737481815	1
2.353598258160844	-0.1570230575582848	1.1459739582924777	1
-1.9243804873708634	-1.331341716033726	0.2404118849769256	-1
-2.157407259968746	0.62286518731879	1.2392069667833217	-1
-2.1144389926999225	-1.1511464208271922	-0.5218948465908269	-1
1.9721799669154547	2.526948485487715	0.5878364653207515	1
-1.4868192015058048	-1.9471734965097593	0.5848367912048099	-1
-1.1493324042398119	1.2295547648061222	1.5392674082356752	-1
-2.4256253006137816	0.18191685429112625	-0.5656624846739916	-1
-1.6177590450574302	0.3852366868224152	-2.2230184153818167	-1
-0.9164612700105658	-1.5591396222842535	0.6097206665538026	-1
-3.119746211379558	-0.062488464876283845	1.2232999276109424	-1
-1.9028164494768856	1.0512311039403588	1.2171264650603282	-1
2.4766243790321596	0.8742977091057942	-0.658306098276609	1
2.676489209402121	-1.991140064301593	0.3376382225213675	1
-1.7774688448548037	-0.39790963390064926	-0.7199396279364709	-1
0.10571168766299038	-0.001579699006079469	-0.0785047631956254	1
-2.053732079074679	-0.4466561403350032	0.2544429520188831	-1
-1.6319015789295002	0.8140657055992802	-0.5604822308642028	-1
2.496143171508274	0.5795802481713134	-1.2437394256351428	1
1.1056020992074698	-0.9668680577409616	0.8914796528222202	1
0.14431636520575397	0.013865518954207784	-0.058424596071632987	1
-1.7229748071506752	-1.1447782735143854	0.6463007790102429	-1
-1.9213111220072745	-1.6776479161921996	2.223815853451169	-1
0.8956121617035271	-0.2100193446099788	0.04147037696118568	-1
2.780019435013683	-0.5068263693515822	-1.0258638181258781	1
2.3813769457109237	-0.37280206454627773	-0.8231434069908824	1
-2.3906789666202894	1.1157448054858525	0.6313230166225391	-1
-1.5062672574377285	0.0436988539193117	1.7882627827337352	-1
3.6578163301963773	2.0766489652303197	0.4581171162535467	1
-0.3140699791364715	0.5758597632204498	0.33005717747169805	1
-2.291283371798271	-1.5120252146930104	-0.6178605375939167	-1
2.402752790464248	-0.07121191749866564	0.8635804160821776	1
2.02632282236061	1.5216081914848447	0.5915713423725885	1
2.4787295819102706	0.49194195465018276	-0.12413894603533138	1
-2.9009499280779627	0.399122861888346	0.15868192189941885	-1
-2.1597495233780664	-1.7514721991468587	0.15101684348465894	-1
-2.876273186091392	-0.2726421674243254	-0.40696900587604334	-1
-0.9942295497000606	-0.5420139467056639	0.6189386901871482	1
2.405345077912645	-1.5055505823035753	2.127578890355728	1
-2.1990822214967367	0.5468127443116324	2.251663368837715	-1
2.5798127231597654	-1.7018127792511404	1.312510827804652	1
2.340487765760361	-0.5789001445753306	1.6602807754663471	1
-1.4110848954379802	0.1912684625813724	1.3736171395336632	-1
-1.7442560174906008	-1.1696787091287661	0.3315315313129414	-1
-1.484670819397239	1.8303229095862361	0.3022664342619551	-1
2.2441728347032917	1.320899516340166	1.3140427983993122	1
-2.561346732521033	-0.8297221303355772	1.4638066666865566	-1
-1.036430645218142	-0.1778201972580338	-0.11248502625070407	1
1.2050805004308118	1.5029812768416286	-2.004705864628824	1
2.325674032731486	-0.7678066532815908	0.9769103319591737	1
0.9056321236835387	0.05864212729334689	0.24926036899294457	-1
2.3215680854394405	0.9049289627491666	-0.7274503503506156	1
-0.8441912506613964	-0.8239022665943531	-0.13143181238056698	1
3.9535105277436347	-2.3102239765931945	0.3169635650471878	1
2.262084483527007	-0.05268070204468392	-0.8308193994632256	1
-2.4116718003563715	0.8740682080710651	-1.7942148124004893	-1
2.1305478650096084	-0.08038386134062155	0.7446502898787286	1
2.1448568668635732	0.7579665179865275	0.6250849614847391	1
1.2923916012039487	-1.4752884546915188	0.6357043723632668	1
2.203905900307689	-0.2893019179820876	0.19595583774028683	1
-1.2611823269111986	1.1540092553197414	1.3496871046693333	-1
1.7851555238783874	-2.5933580610646247	1.156370903304942	1
-2.7380749613398794	-0.23781243885920988	1.2530546452933968	-1
-0.16521154911964264	-0.08096711307270416	0.09167010731768789	-1
-0.8201845054919134	1.0960964234065818	-3.2109215378550533	-1
0.9630442933077288	2.046507589304388	-0.2255419127320232	1
0.8882309518020007	0.39419438520510774	2.7434406521664383	1
-1.3978710280840128	-0.821302484778814	-0.7444099176325928	-1
1.4412918237028425	1.5064192140042925	0.9135021429193682	1
2.30959619478158	0.1949070935322188	-0.04953870565719214	1
1.3580133486910206	1.3879949325987062	0.21291649786702221	1
-0.1558804669442139	-0.13079993562494666	0.07171523465386176	-1
-3.02659425593856	-0.8675922768645314	-1.9408438231951786	-1
1.9728653592879206	-1.7186523003629777	-1.087541039645165	1
-0.5704826182893045	-0.1382922341709774	-0.44248442125820847	1
1.2948318155820506	-1.266797970964369	-2.078416554174275	1
0.4907998119292559	-1.3278140186364649	1.382350106840062	1
1.7047014146694588	-0.8587714866305154	-1.0760479184196563	1
-1.235151608660127	1.4155214882147966	1.2417426736546353	-1
2.0624807744505254	0.06486518559152396	0.8676488212464618	1
-2.591708617995126	0.1651829018960481	-1.0864824207382227	-1
-2.010185208170975	0.33289401114483386	0.04298494987192241	-1
0.980211140390083	-0.40110008276792125	-1.4800994621184052	1
1.6522866082884828	0.48455800815814654	2.4877758829529144	1
1.7161986266399198	0.0034280833157963805	0.6709596380693615	1
0.449360008650958	-0.5736714663450357	-0.716005906636954	-1
0.8877824725114807	0.5065564556635723	-2.1655100318694	1
-3.5219888472333056	-1.185896362477412	-1.8718661026914551	-1
-2.4236077874988937	1.103787314366617	-0.15750481975537603	-1
-1.0961905085353094	-0.9232960875607141	1.574975703849674	-1
1.4192590701101906	-2.77060731447701	0.5204356798589087	1
-2.9598646445502164	-0.9377596757131936	0.13957706211260346	-1
0.7707876146018675	-0.6262306479747882	0.3432623934424104	-1
2.3824279191679887	-0.12236969227373867	-1.7291278091230737	1
-0.46059504785651967	0.21185660506246853	0.6469889413721704	1
1.8406505705164453	0.17488789641807873	-0.056423959581471034	1
-2.15741846508938	1.4380140815904396	2.081259115866048	-1
-1.7967179294993327	0.3636642663934922	1.357091763832058	-1
2.3717383916068124	-0.176157375101511	-0.22570723144484514	1
2.0288272956259448	-0.8206645974632834	1.262486670554119	1
-2.5528915006008575	-0.39021460419689424	-0.09606672815215361	-1
2.477617705291209	-0.08031061933336461	-0.5191579918391352	1
1.6789719364915514	-1.296217508702842	-0.827039273930986	1
-2.8027493081438646	-1.4145197552254025	0.298111606224788	-1
-2.989136114286516	0.9596114574961707	0.4837195209897849	-1
2.616202532176939	-1.004040802223185	-0.9391793542285023	1
1.0257963519847362	0.20983040835452083	0.6190331501991668	-1
0.8792822199661124	-0.054904129293276094	-0.028843696717325604	-1
-2.347850587819097	-0.8959047796995849	-0.06496038420547348	-1
2.5538011715039106	-0.9909905556690662	-0.07392070644815357	1
1.9070348989752883	-0.6691183961698202	1.7039519729704804	1
1.6290947173152361	-1.2813365370553245	-0.5699581257717888	1
0.9880509381441354	0.855553521159775	0.08758444685657134	-1
-1.8216561810750336	-1.30256803199493	0.7204534707687286	-1
1.4632415381079822	0.02446681496072993	-0.8356042286901091	1
-2.218131823095368	-2.0967978154204894	0.9113166321337082	-1
-0.435244505214583	-0.2306903188629156	0.4754726903213766	1
-0.8274085042992465	-0.35000945097088976	-0.13875387877235765	1
0.16971745848386413	-0.2296867568716067	0.176987875927208	1
2.40066582585575	-0.5545618082146464	-0.9444141269257417	1
-0.9569326694474688	0.09637708929030775	0.22573907100827545	1
1.1758636298226255	0.3287917364786327	-1.498581556279822	1
1.2047718638239868	-1.4492701694716201	1.5152575839698526	1
-1.0709561303195418	1.397863834717347	1.8850672757579146	-1
1.8892294650225594	-1.0891168489441136	1.6285107354021602	1
-2.3283809737618735	1.3550030748792874	-1.1390898762852757	-1
0.529752196124554	0.31215180848740454	-0.6155793355380126	-1
-0.8721371648855385	-0.4370940210394867	0.11453433789203034	1
-1.5277121458170981	0.3998060343686435	-0.7410224393153665	-1
-2.4265614471856036	-0.22808633563766284	0.8184277836750922	-1
-0.899111703090658	-0.456604128748271	-0.17417000860235823	1
2.0690351106854283	-0.32229971962956094	-0.15985640978666543	1
2.441087579695573	0.15496979050912424	-1.5250130129992792	1
-0.32070341017782195	0.5232784974573627	0.7502811032506101	1
-1.9353936188497873	-0.027720197808816932	-1.4572361052497067	-1
0.8826132323133857	1.6354770066870623	-1.375969428174055	1
1.9567013721785427	-0.5924587949783557	0.617180410942706	1
1.7615503923222922	-1.414487241684136	-0.43453072239638124	1
2.896913307098558	0.07706365743202623	-0.46535105792874787	1
-0.5428051068618099	0.6465903765792174	0.03802538723565965	1
2.451570357572402	-0.6589114018337804	0.27268799633464147	1
1.005391727595318	-0.49427198369349856	0.42743076438881755	-1
0.3768277223899499	0.03772027474458807	0.12236520159424465	1
1.1507308490261001	-0.6163550310483767	-1.2997940246872803	1
2.0633054983684636	0.18068878477165912	-0.39182396260565877	1
-2.734193968141156	0.37541521044763854	-0.5908169063559915	-1
-1.5618522354881101	-0.8483307411070862	0.1134464964941965	-1
-1.5882515010449885	0.5526571624862618	-1.1114320436287144	-1
0.569430691125487	0.7926394005742963	-1.6406674324998556	1
2.447164536878781	0.5935282318492869	-0.26305067355432393	1
3.395734827760794	1.1053618267809433	-1.348898291248841	1
2.072271098572434	-0.4150307270231995	1.5092705776458546	1
1.9060724159122764	-1.3310215916325303	-0.686261612334419	1
-3.8633435651411805	1.4175578999726368	0.24097295659608983	-1
0.7668440528280704	-0.5517305388378453	-2.279830341309288	1
1.6353209104683044	0.4078241873496148	-1.1808745870311663	1
0.1886182584262148	-0.19732424315383032	0.034032134480793286	1
-2.1684493148392825	-0.7384635581168528	0.18686871291462012	-1
-1.598813367497359	1.128868666410553	0.5695104840260862	-1
1.051692840802964	-0.6005694085224074	-2.275945094750418	1
1.5680193950237482	1.6719052217612314	0.07020951018409918	1
-0.9166822733042873	1.8341443854647297	0.762414704323723	-1
1.5486156593403886	3.0647856758942122	-0.5834424213681909	1
-1.1287380046113837	-0.1458266890460612	-2.4672848373980476	-1
0.8302795262170459	0.15419069357405046	-0.4537179275801768	-1
0.9174473086484414	0.7221918013060679	1.477878531406844	1
0.6776919614916375	0.5824390473724075	0.02896688450861794	-1
-1.4178698224730844	-0.24498928592644625	-1.4506552769936283	-1
-2.463965733740524	0.5648492699192075	-0.5793846995438657	-1
-1.6381397457822098	2.024089045460306	0.9137017189084781	-1
-2.6333501177395213	-0.020321022303819967	-2.1464934027289035	-1
0.877786113770673	-0.808729760234278	1.7154767564592845	1
-1.5099012701225982	-1.7836778083653524	-0.43044909949589094	-1
1.5063233983289683	0.8418537752566415	-1.5767000124943058	1
1.693365759654907	0.8083570215182259	-1.9833769204812268	1
1.1092726812542324	2.109521321768497	-0.10895712079482954	1
-1.6170653644309227	-1.5003286886144256	0.032837255098699274	-1
0.20272095653993444	0.22515031523523468	-0.16810728783934162	1
1.6025060058563705	0.2142157779361259	-1.3859788450735755	1
-1.9470429832539708	0.8627829810948753	0.99511061146758	-1
-2.37455001532317	1.06517800165467	1.1358076211894932	-1
1.980185070166147	-0.9546015681413684	1.7099803207409299	1
1.1861139058085228	-0.768628091281337	-2.150974650844349	1
-1.6193987452140968	-0.3133962842935641	1.229719661660613	-1
-1.7480121268010327	0.3122942485233992	-0.8156331691966323	-1
-1.8302815386438966	0.592950649959527	-0.34973737936774607	-1
-3.724267987603345	1.0146813055649708	1.1541124416396256	-1
-2.6059502924914053	-0.16616758203837453	-0.045573842742318245	-1
-0.8367979144967452	0.7809911703489119	-0.05121624530552446	1
2.127716668568745	-0.5047048725503325	-1.141072725243554	1
-0.23330844851231958	-0.019586864886566965	0.15011064776597893	-1
0.8013569793175764	0.031787825973404044	-0.8253480637688775	-1
-0.7779523575710383	-0.4062773084189961	0.22411865448696058	1
1.5589424181642821	0.4743804709400216	0.7363466964950319	1
-1.018414068173582	-0.3968777213495196	0.5626877219132405	1
0.7255189086523317	0.45148067340693343	0.048277875827741845	-1
-1.9303336491112806	0.6025003387237825	1.3675470565243213	-1
-1.1822999658952495	-1.0487627236547374	1.430832510603353	-1
-2.4730377048656607	0.7635194784384698	-0.05719055815331521	-1
0.24637043674525244	0.2606053314420274	-0.07732833277938211	1
-1.2062364289226555	-1.271844091361677	-1.604038447350689	-1
0.5932386698133032	0.7200219581749159	0.615596537177975	-1
1.177399544443867	-0.018586147974901105	0.10913995810614846	-1
-2.4163654836575947	0.695702626923175	-0.4791802115038204	-1
1.665454258947085	0.2968605363564711	-1.9553760234631163	1
-1.725448893176455	-0.39171689658201125	0.2289245299202377	-1
0.402730800900946	0.5263697237168353	-0.009075753565198621	-1
1.9941397798149758	-1.583667485602387	2.550820306776007	1
-2.699894521571475	1.20240479219337	0.4541191254187565	-1
-2.09915755972795	-1.139601670699762	-0.21220941146047073	-1
-3.8968154061830997	-0.6214975916620512	1.295993015197384	-1
0.8169130440121736	-1.8030742963521043	-0.24212400002169085	1
1.4474372605650183	0.5711738548444177	1.594781644918723	1
1.197127199337631	1.0113120204704256	1.3380729760092793	1
0.317816553428071	2.2381018261558316	-0.373661234387567	1
-2.0759993301957214	0.8038994326953939	-2.376455962407009	-1
1.6229515844517441	-1.16677236042116	0.736834943573643	1
1.588396760611145	-1.4539156378407594	-0.47855948339327137	1
-1.7864544859591693	0.22453651392040408	-1.04395863080846	-1
-1.628508101824753	0.8499979198960299	-0.21307504492015897	-1
-1.8111230571326251	-0.7049132918257803	0.09032093656457336	-1
0.16254866220680397	-0.07636701904013411	-0.01441554422707232	1
3.0259148866329384	-0.35160381536704444	1.6301750858386594	1
-1.5056421116514365	0.46812989733473664	-0.5812363074629311	-1
-3.7684553857369383	0.1397176791334752	0.9625236162004814	-1
-2.0193707483919305	0.5081984437688901	-0.6947236608885716	-1
-2.9899694272205264	-0.7444666050543784	0.5009076986846471	-1
1.2295606977165003	0.06474751126554588	0.13363094377984544	-1
1.1637933112528764	0.19494939413054144	-0.3132561251533702	-1
0.9908538985828312	0.02021758084080219	0.5781102272664592	-1
3.1149307581072536	1.0367399840538676	-1.321588338368132	1
-1.9571702570076281	1.0545985375656846	1.764234309223066	-1
0.6966929472019445	-0.17408716095820173	-0.5682834557128374	-1
-1.2646923025590482	1.4645211825921758	-0.21341912669472407	-1
-0.6498070825991767	-1.0560691029860365	-2.972972603043233	-1
-3.192133338566112	-0.11806338748107265	0.6331969545584759	-1
2.139490675607403	-0.176494157511013	-1.4743584556107097	1
1.5429190554041172	1.2124451021117462	2.135009451689579	1
1.7942325403277086	1.3475742817489031	0.4679738361977246	1
-1.116629774534235	2.1283331963439402	-1.2063575102220834	-1
2.5378037322618674	0.25390822789004214	-0.5851556714875457	1
-2.4175646191596574	-0.8111964566879177	1.883039001741177	-1
1.4178926540442252	0.4544225733625347	-1.4389522359527074	1
-0.07152788578672216	-0.12165556561810818	0.057372775331162265	-1
0.7857066096608745	0.4662064086791519	1.9425670407267157	1
1.2433996291115876	1.2415796299908584	-0.07150320620562868	1
0.7746471601874524	-0.49171581823989724	0.31564455815561226	-1
-1.3738927699923889	-1.0760982164736268	1.0316582810604467	-1
-1.4459228241858133	-1.1898995774071937	-1.5300909049220806	-1
0.6393640042101093	-1.3344736274542564	-0.9824184189639518	1
-2.321515307184199	0.2589900558395117	-0.525785123721663	-1
-0.8231457646307572	-1.133364380203475	1.3366526002504635	-1
2.949071545914286	-0.6070933765310511	-1.4337830010366759	1
-1.2714054552918028	0.3926475096409119	1.4881811909783635	-1
-1.2619625820511982	0.14724967172505912	2.688680226175918	-1
2.4874050874215254	-1.3887030368554474	-1.5708543636807415	1
-2.493137822812824	1.7350689965873134	-1.1290948059948676	-1
-2.205436340011944	-1.1480151108253498	1.0006019706135558	-1
-1.8988517812624999	0.5147774587592647	-2.356647830918356	-1
1.3868343691340508	-2.9523791278624674	0.6230416216642483	1
1.4102934058294907	-1.1395471049204278	-1.6383763169113525	1
0.7435001913805399	-0.1160504216050175	0.17390937129423245	-1
2.9186303503909112	1.3885356616903377	-0.521040598956733	1
-1.0849664885623724	1.3883741595713752	-0.25354165077178686	-1
-2.728235798602182	-0.6053025706315984	-0.11550315233337556	-1
-2.26220066052903	0.5717343804705468	1.1339040324582008	-1
1.778120348156054	-1.4742817075611792	-0.5657064215400722	1
-2.3562863306671487	-0.553126956500947	2.4177830353423877	-1
2.2490067698311176	-0.726618907188707	-0.6198009026184956	1
1.9505710785561943	0.7158040808707619	0.06964897500478028	1
-3.0664538965812165	1.8615057575737943	0.48792480278216904	-1
1.5133355366483519	2.1469463809475497	-1.0917994245833362	1
-1.7489772276778384	-2.2697681539180867	-0.3919256107808558	-1
-2.1379979157848874	-1.346477892606181	0.35219701414300275	-1
-2.0237993512911223	-0.3447926506332213	-1.736418282667903	-1
0.8826932608005867	-0.19145673425819376	0.4939048320149564	-1
-3.204315453646985	0.3294142637631205	-0.9634546818876984	-1
1.93136572171652	-0.7525967270267836	-0.8847913498774848	1
1.4488169005249776	2.0949697479841585	-1.6389637591151598	1
-0.5394522722510411	0.4105151938925178	-0.11924988030440156	1
-1.8028796156608546	-1.1853908523890044	-0.35740970990118615	-1
-0.5954237475974969	-1.7142005571661205	-1.2626251102627828	-1
2.281607046618263	1.0300491161281016	1.3972162268799966	1
-0.22239903512703788	-0.05017047682351559	0.19247128226834656	-1
2.1944976646214207	-0.6007211309547955	-0.135231687121478	1
2.0853320890260716	0.04604763791829842	-0.8058318541398926	1
0.8157215008112216	2.3267926554965026	0.4092954470153567	1
-1.674952981463952	2.5352231013909536	0.23235087449152472	-1
-1.0319630995036586	0.01340036237621644	1.8211702397428828	-1
-1.7355121523678656	-0.9959018432132022	-0.45791205756340114	-1
0.16465866002634946	-0.04586911235583799	0.24453232550492987	1
1.7830670880020465	0.03647405145726173	-1.721787839630456	1
-2.096982280702024	0.3852107218859106	0.06851897008266403	-1
-1.8703617302806657	2.0076545933896117	0.5108885880590871	-1
-2.7762979264419454	2.0922522828106866	0.04380670580669585	-1
1.988200859368221	1.7364706563883159	0.3542258357412442	1
1.7264761413750147	-0.5070450910884166	0.9439198030142205	1
-1.978166472270991	-0.020370132902729023	1.328812886561114	-1
-1.6612204745777746	-0.6882597943853789	0.884335582046843	-1
1.8030666799231492	0.14889230167153789	1.539020352271718	1
-1.5488398635984346	1.201676550126265	-0.2504201191931678	-1
-1.0906136104808248	-0.2900565035057698	2.5397853128586325	-1
-4.273784012845557	-0.17275822210368824	-0.752224920691269	-1
-2.1404135384458645	-0.2828485953004475	-0.5411437154003099	-1
-1.8447971905509737	0.3653755881631396	-2.568313290264306	-1
-1.9594389172239017	1.0535047979443843	-0.019593818904935213	-1
0.9867040457936739	-1.5310075869999735	0.23518886394367453	1
-0.14800516286884013	-0.046615747944772024	0.004077648317648642	-1
0.15155279858564508	-0.19313766164802534	-0.0008951350277000675	1
-1.1976123756203865	-1.8673706793759521	-0.4604233097824095	-1
-0.3572501945604653	-0.06697073036930357	0.22701173934214178	-1
0.21606241205867108	0.016706082217410136	-0.08059849170619411	1
1.6256238558216296	0.09742224826750133	0.15757411524797338	1
0.674259927586472	0.8598860892127084	-2.1215668537028565	1
-1.3755484738005412	-1.4261868281792847	-1.29756373824912	-1
-1.7286388089362248	0.1588265021825106	0.4107841625115339	-1
1.4225068394646028	-2.2025757739635665	-1.114642058266362	1
-0.898095040309536	0.043092684634458873	-0.30680745366418805	1
-2.675926176786239	-0.16056559098724366	1.227996649358504	-1
-1.302066631573474	1.7156358172524904	0.5835507921370687	-1
2.2881835259071006	-0.4474999303021622	2.213999558580715	1
1.2894497253481638	2.422253507600549	-0.14976638006599063	1
-1.5981571721400982	0.3495598238471751	1.1391884730810486	-1
2.2616279747880577	1.4830705877423798	-0.19198665083671645	1
-1.8195342500484892	-0.23428204030462313	-1.430702028247036	-1
0.7376279709763659	-0.8622112708407107	0.1676306994755605	-1
-3.08010655103853	-0.25453083787289293	1.437351921611345	-1
2.2844501561380643	0.3560375043700276	-0.5603217982524512	1
-1.8785824912214861	1.0386628758207077	0.792091035736361	-1
-1.5666359561491803	0.7923954559009259	-1.7287792430945654	-1
1.776874844968158	-2.151791663433858	0.6654953784680867	1
-0.6887529519270278	-1.4216315642786463	-0.8737877931991417	-1
1.6868740713474528	-1.764496234662361	0.9013109227857048	1
-1.6753205013507704	-0.7965187475025807	-2.226032265446993	-1
-2.1821644273480825	0.9715665292157688	0.15138114987446805	-1
-1.640719549648538	0.5145379333993093	1.3810826649810501	-1
0.738953851045589	-0.43456446840246815	0.011282616372325579	-1
0.9969226020645787	-1.2945352596740056	0.6180260670077335	1
0.6428246237934596	0.01261661037443472	-0.49086606497788426	-1
1.7237379218859747	-0.39605505185077905	-0.21784040448685588	1
0.7946190496534737	-1.7019987249079023	0.3325464142579097	1
-2.09532908221822	-1.0826188226199105	0.5598100119776122	-1
-2.2778123251691484	0.20629065171837602	-1.1377260181531612	-1
-0.9836163776235799	0.003458719155098374	1.7221162601799815	-1
0.8775140921250135	-0.39499084733065837	0.17056671128687886	-1
-2.1734833612856814	0.8688342783340168	-1.4274622984831784	-1
1.764914919897239	-0.4008810849585399	-0.41453144849066503	1
0.4294974318264167	-0.77703424117698	-0.30551817100187334	-1
2.8822670217372575	-1.5596837461455788	0.2908449175023807	1
-0.6153955122291608	-0.07597688046732676	0.6008641237497057	1
-1.4466886529987586	0.987236672862514	-1.9203153909231803	-1
-0.06962367299970519	0.08480308227718991	0.15139626056510833	-1
2.68531774978191	-1.7899991102317223	0.7319937481162963	1
-1.7642139217586363	-1.1128548020081879	-0.46414156492455505	-1
-1.9962196671235273	0.6932966574145797	-0.031023404729222565	-1
3.5055980485878173	-1.0997651058992586	0.8712489194322901	1
2.09211922802829	0.29128940445480206	-1.2860274579108042	1
1.969694528422566	-1.8837393734130796	-1.1324422650833381	1
2.4772276287736257	-1.0977504976004269	-1.0115186988273972	1
2.3352999646126125	-0.5617475464740612	-0.2858959439100304	1
-0.09414986065560316	0.08798065270611345	-0.043563915554929146	-1
-0.9573034663238691	-0.8690801545302915	0.44411560441357506	1
2.5690831542133004	1.0676388199633364	-0.6437673638532702	1
-1.983864985083379	-0.8805885209974751	-0.9748351489697233	-1
1.7117866809068785	-0.15361969738263906	0.6911410581777981	1
1.3028532500201013	0.38414406953615	2.513717608542852	1
2.4881038619528546	0.7817063013643505	-0.7631111406630254	1
0.7467508990638103	0.5910860699190181	-0.3553614639729657	-1
-0.671236328360991	1.8131078306535713	0.5506390938346895	-1
1.4320706187363086	-0.8209821320218023	0.8789720180357755	1
0.716313141560855	-2.4241724832952576	0.2679232893011723	1
-3.161477163485997	-0.48578475943200083	-2.6652494304294017	-1
0.8305472395951846	-0.6422078907665881	-0.4027912254676824	-1
-3.039132567240688	-0.7569549767076802	-1.930451225557183	-1
-2.734560935490873	0.30588484038478564	1.3775457491620204	-1
2.304624810759258	-0.8328923765163669	0.1702672757336957	1
-1.195807818109959	-1.3126033077618073	-0.6048604571409486	-1
-2.2453474389570314	-1.7745636662106958	-0.18185106198092332	-1
2.608688817739413	-0.30790529304251596	0.4061226834085038	1
-3.5133577766861714	0.6264491192514052	-0.5899241546404284	-1
-1.0098202467833992	-0.8829290874979837	-3.057065535571529	-1
-0.19826701955666579	0.1728892613957801	0.02608051888187063	-1
-2.199032846508835	1.1478358215284454	1.1377585213933434	-1
1.7333864551852487	-2.5553017907333064	1.396124674200518	1
-0.8591393154245657	0.4674631090234838	0.47579342464586416	1
-2.487787865844936	-0.2761621552541644	0.45987012632957375	-1
-2.4806107762728797	0.18630094817611215	-0.8235062554407435	-1
1.7364531339507707	1.6560510490067895	-0.4977199413125568	1
-0.8315186864771837	0.6143023515424032	0.05168609654186388	1
0.248820546956329	-0.14010756977479852	0.28509978385855433	1
0.9670370009398399	0.16850285661721914	0.10648668568218854	-1
-1.08940190523379	-1.3309327069228316	1.309102002541423	-1
-1.8557050074519923	0.7137262502426749	-0.738405024854496	-1
2.3811099269858302	0.5559222902182986	-2.1390955774501483	1
-0.6551347102671986	0.5694658263668846	1.636905367748784	-1
0.3816835358861198	0.19244563814239973	0.16068447049532755	1
-0.12841000203989708	0.011477906112266695	0.03120783513089384	-1
