-0.7319316497565289	1.8929163655022496	0.5343976884641871	1
1.5343539075991073	-1.805421528155657	1.1345228112296335	-1
-2.1281036134174736	-1.9072202592909067	0.6003536648457606	-1
-0.1626284943581089	2.8779659343967965	0.019614466768579163	1
-0.236141028194337	1.6797089676937482	0.2686025707680795	1
-1.1130638248738276	-1.3967495817960986	0.3233577301266515	-1
-1.5990327136064062	1.3365095577173203	-1.0452261922261052	1
-0.0289308684299473	2.0451699008610613	1.1467249837695614	1
0.6111006570984022	1.7964169089659916	-0.5637246569854254	1
0.03296045206516389	-2.740308389334025	0.1692661400811956	-1
0.8282733471630922	0.8127876489586474	2.410409225680482	1
-0.6682677265295114	0.9048367000593553	1.7148123491337008	1
2.07323936750729	1.2722561755991644	0.817405407913582	1
0.1554500074007624	1.7882439771981138	1.098613250039194	1
-0.5462719287838159	-1.8696134477849051	-1.5982253531791815	-1
0.217274496017582	2.167714774302149	-2.185209720195377	1
-1.125439624653035	1.6177980570709491	1.795810414441425	1
-0.8404431222921854	2.087870367139098	1.7855633873267966	1
2.2627368478816785	-1.435267928201145	-0.6273100706629512	-1
0.6060762779364297	-2.697410324292836	0.7580585549346585	-1
-0.4112338070827842	2.3420872021560952	-2.2389911152480417	1
2.4122218921722154	-2.5060341690021577	-0.8454911248054376	-1
-1.955843303515015	1.1121327611263259	-1.6631319118996484	1
-0.5694520841649399	1.0742898434447035	-0.23800828921349593	-1
-0.9713004363480366	-2.071495711076767	0.9984260966213836	-1
1.0949653227863552	0.5197384790296167	0.3690785986319773	-1
-0.07608024131202004	1.72467707735513	-1.784656195272584	1
2.017779104005776	3.5909825605231442	0.5056469069803419	1
0.7831490810156924	2.5013844903718736	-0.07717185597312043	1
-0.844877414963841	-3.0212376480388214	0.5613963904218544	-1
1.5882150129341763	0.7162644488659331	1.5090243581115987	1
-0.0927021629980288	-0.8979760212300966	0.038409464751184376	1
1.8980405882620244	1.1180170614481226	0.4583138511575851	1
-0.999131214600228	-1.8491708841997505	1.2461714662214562	-1
1.3765146044128396	1.8170039919785983	0.4757652075905224	1
0.6071524092819067	1.1178306705161987	-1.6632521569949383	1
-1.9796537668231242	-1.1257986942626148	-0.48186589698907795	-1
1.234541724940799	1.9595293392425603	0.020170731603044428	1
0.04650485293896032	-0.15858886161928692	-0.02805134380855273	-1
6.75291241596638e-05	0.16290786207301425	-0.35142588869007974	1
-0.38475446610842234	-2.8265763254165197	0.7914929929454069	-1
0.17974595518157477	2.9000367217609653	1.034838203542845	1
-0.47695235250209533	-2.2326849220507614	0.3718269127052652	-1
-0.7024491834964115	-0.4090644255838661	0.04178395678636538	1
-1.407986151384042	-1.9987235987275764	0.6716910721490503	-1
-0.33040611446414375	0.7600891792896934	0.6001480563596845	-1
0.25706795431647156	2.144502634556426	-0.03197624010581094	1
0.5415164482766627	2.4056505096723355	-0.08640990590209857	1
-0.39998742063232795	-0.5396281976973771	0.14381497998995543	1
-0.7488310412759492	1.619899750999768	0.06818493864225636	1
1.1721576940077663	-2.511378677923864	-1.0522522626492732	-1
-1.131980213911861	3.802950795046625	0.0745963002700356	1
1.0511919363276903	-1.1584826719339327	1.2709177737380213	-1
-0.15407064312658839	-0.2706252647926478	-0.06623884202266475	-1
-1.7841178700526652	-1.0101837361570825	-0.24059515012015031	-1
1.2789420238179061	1.7735873213834106	0.8060309010658738	1
-0.29495814365219547	2.727052553967992	-1.0384831098589757	1
0.5037034337814855	1.6212071695264232	-0.5271697822268329	1
0.7968391714699427	2.7159516375951944	-0.08934672665924352	1
2.140511178520687	-1.5134832722273739	1.1451217733364505	-1
1.163474194492863	1.2122742750396946	0.47742092047265683	1
-1.3259438080491184	-1.1694525107747782	0.5472836114360872	-1
0.7607970303424343	-2.19313841632623	1.0017566434130043	-1
0.019479433936179572	0.2068942961260497	-0.19989108333516736	1
-1.0450313696033529	-1.1812376897494317	-1.419221102222327	-1
0.4404604070738898	1.7392542392368266	0.7766587236551287	1
-0.37197616300619796	-1.978354109961784	0.820895312368691	-1
1.1271827532417877	0.9657310547416769	1.2903802335286254	1
1.5190503964380593	1.0458602379510564	-1.6077060011413709	1
-1.335057963873978	1.8520469787997218	-0.43970556501300023	1
-1.5524090086111648	1.1980461005925571	-0.1730912826337618	1
-0.6080822128370038	1.9959727739429756	0.06676529752407975	1
2.2181857228414836	2.196093473654311	-0.422132722043114	1
-1.1077741818390268	2.0400451395019954	-0.23921028431587776	1
0.557954284043918	-1.5711864065488712	-0.96888824112191	-1
1.685853863976702	-1.7094487394819229	0.6922092092688534	-1
2.11338845084063	-0.8342170600203392	-0.133142903267831	-1
-0.10672830563825247	3.2706172906582567	-1.4424064824537388	1
-0.17268148223123436	0.7931098678244158	-0.04894308895419083	-1
0.25548082743901224	-0.7482925327479695	-0.5445494597493649	1
0.3308125419539345	2.387682895565589	-0.562040748083069	1
1.9446366332976461	-0.7526453885289721	0.8339294748308884	-1
2.202001978432727	-1.47680059661362	-1.2384806402097845	-1
-0.6514537720722456	-1.7349526204281416	0.19140906214252917	-1
-0.34211241606992315	3.6169852320376705	-0.6453180228256206	1
2.4688339485216777	2.7688288519833457	-0.22903289618633005	1
-0.21144569373065175	1.4568403655492548	2.998845199826526	1
2.2075342658758177	-2.430884793912196	-0.1774700051437326	-1
-0.2268163694323635	2.0942117793639374	0.36854895551978106	1
-0.004008768221107528	1.3227328783993466	1.5243909369532767	1
0.23895424630741813	-2.312952804719507	0.7559161019164917	-1
0.3263905991289844	-4.122538126129178	-0.3518764937110864	-1
-0.5405939308388706	1.976491985297013	1.0562279512488144	1
-0.9049715112335472	2.1339945401237044	0.7305944257673108	1
1.7597911262259704	0.7403631663386006	-0.3136458553251903	1
1.7371293249300805	0.9505387953789299	1.1068966685109796	1
-0.6964252871543853	-0.8136519235037671	-1.3948612047843492	-1
-0.8617928578485347	-2.034348924764819	-0.7502782990201196	-1
-0.5759789480606534	0.5470254330917378	-0.3931312623122972	-1
-0.24394977624905834	-1.352098810283712	1.82164328695768	-1
0.032166821884308465	-1.8827239878082134	0.7560308131185943	-1
0.7499576863355494	2.3664669233646594	0.2570804102140881	1
0.7975051860411578	-1.7664207225637807	-1.0482388344174365	-1
-0.47242053966980135	-2.2510964521019394	-1.4517464865906562	-1
-0.9657870178947742	-1.3476889082716506	0.545159286733185	-1
0.9131110666142122	0.7376907760705795	0.003777988474751574	-1
-0.07872971101601495	1.0196966963245635	0.887431004053854	-1
-0.3742355489768552	2.864901620715028	0.7198362970624586	1
-0.25107287457687133	-2.0447809422089827	-0.7071144303653092	-1
-1.0036233075495824	-2.2359404535769984	0.3586487917006855	-1
-0.04049805686382027	2.24220536594788	1.5638306011848893	1
-2.013204147106675	-0.45557360288504295	-1.764475257856982	-1
1.3755683355647539	2.1627334373256515	1.112041057431578	1
-2.7997914934988803	-1.6204460612715896	0.7990272544022009	-1
0.8885789278216569	1.652958168681301	-0.011699949560921128	1
-0.03456156404928686	2.59969997831589	-1.2327305093363643	1
-1.9369935810882322	2.2436760967554292	0.5219000749419282	1
0.10612416488115302	0.7050088005009516	-1.6998076930280825	1
0.40104490907876206	2.063552768736013	-2.254069042452841	1
-0.7221565191524865	-1.3589389895147543	0.9154398396807695	-1
-2.001926237434713	-0.9950143224808768	2.1002167113832355	-1
0.7637292629447527	-2.2300548702640874	-0.38893202999682674	-1
0.2701694017483074	-0.25987583339689535	-0.014720917708522435	-1
-0.8826998531244483	0.2778899387304869	0.7244391186397374	-1
0.4545747292747495	-0.4107710383243598	0.886698907809247	1
-2.3595676649669435	1.2744838203624465	-0.39320553069707714	1
-0.28060026844747493	0.6405150273100776	0.4276176900750661	-1
0.31996209583031654	0.8506059307571407	-0.11468947710846283	-1
-0.1311215260672329	0.5892847687421393	-0.5135266207129311	-1
-0.6865954479703107	-0.513750403208186	0.059247632758841366	1
1.5218505925981032	-1.94972629838335	-0.12937547667795202	-1
1.399205944221487	1.6987492510552133	2.042164043897598	1
0.4791541232876954	2.1475526677090993	1.2220277356910816	1
-1.2936610050225372	-0.8315153116793326	0.3448222566628427	-1
0.9698818480982004	-2.069578079581062	0.0071531893558028515	-1
-1.3677897746696792	1.3195178783841355	-2.1878994111892087	1
-1.9478896426365453	1.2648585003757375	-0.11990390666315116	1
1.7105568628364385	-2.0405999697768316	-0.7810775621151818	-1
1.6187512559596327	1.0678152561920076	-0.37477248337827485	1
-0.39124756851306897	-2.2720462068586125	-1.8638131252552324	-1
0.06323850738277584	-0.8050162656222422	1.01698805693747	1
-0.006061775458408638	-0.8098488268715578	-0.7522999083759792	1
2.644038135957581	1.9618344168426671	-0.10680894712930532	1
0.5709078004363591	-1.8737754699590667	-0.9929228077349889	-1
0.19161923890725657	-0.9270759670654348	-1.8970085066404623	-1
0.07540962814112548	0.24762854670950074	-0.10699867178583872	1
1.4344607429321623	-1.4169766374383002	-0.7686398572300056	-1
-0.5146035275978484	-2.710588089744676	1.877919447171751	-1
0.33189923599862414	0.8825740577105725	-0.1875258563779744	-1
0.08014064615762295	-0.7121169647764867	0.44466051746653074	1
0.1408667536946595	-0.9560788459278902	0.3071134570135027	1
-1.6649631656335655	1.2478811442882953	-0.8469643894750851	1
1.879095305800769	1.7650234983768323	1.236157237927666	1
0.1081720547658503	1.6576514650215852	-1.8195630408925128	1
-0.05284504573861274	2.007081514665752	0.2449623817559901	1
-0.21167896789876395	1.851901211111329	0.4800609544083478	1
-1.201807378393336	-1.0760920470145396	-1.3687857808644261	-1
-1.0107022216475694	1.2909113042904474	1.164582163736099	1
0.3381047134451432	-2.0496493709782833	-2.0363100190072987	-1
0.21582181600451866	-0.7975865081846769	-0.3418082173758674	1
0.1769951263155368	-0.8600017032568852	-0.20690762009963348	1
-1.9784089246427774	1.8502594106121977	-1.644336422851138	1
-0.519779279045473	1.6379235382105262	-1.0993317170733203	1
-1.8686905350727046	1.5402323917690341	2.0705899601682365	1
-0.2738663752402748	-0.9571347532224911	-0.33427141043543396	1
-2.052118999403756	-1.3229857059177457	0.9375724067869907	-1
-3.4481807052197917	-1.5014881856487734	-0.6388163731386941	-1
0.26563345089291635	-2.3610994319132104	0.4435338746474474	-1
-1.3015604041965314	-1.7858451688887063	2.5889312288070223	-1
1.4094282680098302	1.9172036321735129	-0.15869808976208505	1
1.2329572936214035	1.5720732540709565	1.8074425000575998	1
1.5702124641852082	-1.8628185826851535	0.8761507777009702	-1
0.927668281832173	-1.2486252971808418	1.2150074392350512	-1
-2.6169108305899766	1.4498894219543073	-1.9055095190242064	1
1.2598378192599542	2.4914451786475196	0.3291295582005991	1
0.012623747576911593	-2.419925525463775	-1.3262720333923075	-1
-0.9670552756393589	-2.3810115699175367	-0.5747848493477526	-1
-0.8812771673420857	1.82987938000216	0.07211666647958291	1
1.4318866819554306	-1.3549585513594564	3.045179753794984	-1
1.4669716566136852	1.696289337231306	0.5347209150304179	1
-0.027882273005994697	-2.54070539104549	0.9311255269837982	-1
-0.3639271931039332	3.2851745982872425	1.2035687723721087	1
-1.6737986283601385	-1.8682137073343612	1.065899753988566	-1
0.7127002477654079	1.7173812514990556	-2.025146673963833	1
-0.35928405986948414	-1.0835084717274552	-0.2148063818500396	1
-0.19449910548488128	-0.6842583415099659	0.5889587108719799	1
-0.9975060217574745	-2.0243270025976314	0.67549911333731	-1
-0.26311414952130013	1.9274261639884174	-1.644824290344447	1
-2.048003082752479	-1.5307998779337333	-1.9237937821262332	-1
-1.765476931121355	-1.3765345960227353	-0.10576621774422086	-1
-0.06695468491355226	2.2820028736942226	-3.6025272453475305	1
1.3284769015562103	-0.2568534173652198	-0.21656455327386417	1
0.26543312027677646	0.3036025694442973	-1.0055900181520212	-1
-0.7889469065368413	-2.144901655140996	1.3213440053470324	-1
-1.466873384975629	1.3514394851166338	-2.326090740381024	1
1.2351453836526733	-2.1944942974316417	1.2276442764266244	-1
-0.19011767204964294	-0.69202282001089	-0.5683675589865292	1
0.18864627051378272	2.30866919746732	-0.6786561676951686	1
-1.315979297947406	2.7149591923733607	-0.05059651069220215	1
-0.7695538687296323	3.107223426688119	-1.8150235691589593	1
0.9194186642683582	3.2690014241864085	-0.8842085984839789	1
-1.4915813371200666	-1.3899307993915198	-0.495761808788488	-1
-0.15859479063909118	1.8717480684379393	-0.7575260516002955	1
-2.609677394999805	2.2166334668046748	-1.4971488167947549	1
-0.9588796725255577	1.6643931397794547	-1.745024527566522	1
-2.4099555030763407	2.0736148671499306	-1.3907955449358929	1
-1.5093676204686757	2.185186106547824	-1.8312168171899827	1
0.6197278274007348	-2.673268469274038	0.8201242391714226	-1
0.056144982878451655	1.9573443277135607	-1.4969529692257182	1
-0.12377435892060301	0.08318741481598065	0.025537460475996056	1
1.7717516928877144	1.4953580049492337	-1.7202785274778098	1
0.7822047969554684	2.6730847259517607	0.04708974107026198	1
-0.017221903841283828	-2.9296818550351054	0.1761284325388936	-1
0.10703725627880532	2.4060724903795165	1.6407597510341287	1
1.9284373829631605	2.099354072764948	0.4474821053437554	1
0.03312491662660157	0.2684259075428902	0.22027706107306264	1
0.48488943213731694	2.4101038607673106	1.0825904079325335	1
-1.4336878027675577	1.5946946556355992	-1.998555151832262	1
1.4514596474018338	1.5759138058375228	-0.4066276244637641	1
-1.8962015026106513	0.2258770835817524	0.3385276950341153	1
-0.07841576046343429	-0.8251966310620795	0.5669285700028256	1
1.1964914861042595	2.1206139916369913	0.7919030021561978	1
1.0058347555181688	-1.9464284768810818	-1.021833938393733	-1
2.755984322637106	1.4634229400753926	1.7079566001033037	1
-1.4494208912955093	1.151907702886535	-0.19492915237351024	1
-0.5912618187034537	-2.1035426116480838	-0.2715189412561722	-1
1.4718980695239043	1.0966142582004397	-1.6939236748060662	1
1.610826826575507	1.4985235175199965	1.3463826281254692	1
0.32001934165523427	1.8153130674585558	1.2832569179772184	1
0.16101763562891863	-2.9177943716711603	-1.1035829056291295	-1
-0.14732317755577545	0.26499838359514294	0.3368880936585133	1
0.6201712042190742	-2.7258001917039723	-0.6315654003790452	-1
-1.6114849198669152	2.82630370707853	-0.7389296629557183	1
-1.5910879298461162	-1.7301269917042763	1.4223169929155164	-1
2.5171113038888975	1.6641861529403432	-0.23210225253103595	1
0.30819823752077874	3.1602679278884143	0.5152445826414336	1
-2.354289171641637	-2.0832133721670374	-1.8634341981407543	-1
1.1999599238518392	2.0954009333332326	-0.8072225047144145	1
0.25037566223269936	1.7378528907751551	-1.431266423060462	1
-0.46799543132908017	-2.286547126581126	0.3174885954018694	-1
1.03613375583349	-2.8153757633371472	-1.120771568290298	-1
-0.6376286223688008	1.9942816133920234	-0.3626525035738863	1
-0.8002847874070605	-2.411975261730553	0.7049013539226637	-1
0.9634931090864433	-0.7337638983783782	-0.109471986292752	1
0.04504488753182101	-0.9235221948403094	2.5838344041003696	-1
-0.9043655817489876	-2.6871517077079967	0.1911834072604719	-1
0.04881806669757961	-2.475197855379251	-1.2757148591904748	-1
-1.584960955808902	3.4030611411505136	0.12482939176747102	1
0.5262208004778396	3.2728902592118128	0.5099160797107095	1
-0.2474262293464496	-0.16408615964425963	-0.27629667373512995	-1
-0.47788400869905684	1.0295355421280874	-2.2231743177795824	1
-0.20693923225556632	1.0234142938284072	-1.1727035009263744	1
1.8981087213141146	1.90583528226238	-0.9215951132242847	1
1.4753879040566913	-3.296810833474604	1.9890893998606332	-1
1.2361699330579503	1.507484092754999	1.2197829800689108	1
0.8795807515768083	2.3079740082289386	0.3852311765010837	1
-0.25316467559816686	-0.18331408697262344	0.8180605716958204	1
3.2644163206260814	1.5512882516638573	-0.6679252822650966	1
-1.4511317183165096	-1.9603825033945708	0.11381575444168289	-1
-1.0111841640751156	-2.1276506499026224	0.40464823158436636	-1
-0.17889007570893714	0.5749409084294222	-0.09425138039146985	-1
-0.9420990132059162	-1.1656774141575157	-1.3978537486082745	-1
-0.8569259394086469	-2.0404400519060157	1.2311394529521653	-1
-0.9677914023045106	1.4036207337943474	-2.4873651524308875	1
-1.648116180763163	-1.8792531427838712	0.9213026950002112	-1
-0.031273963228680056	1.7437384139117773	0.21125511498648517	1
-0.40066916701156674	2.5237748153663797	0.1918567548333131	1
0.4583048669577647	2.671780384710857	1.08620119757978	1
-0.34049239739904735	-2.8662466173649808	-0.25826405860521445	-1
1.8088715614439181	1.873769875950141	-0.08355317933336094	1
-0.22079990250279288	1.9964869538749277	-1.9834592054621227	1
-0.6213707434763176	-2.3038127867882103	1.2897262429093188	-1
-1.080135864662991	-2.0867117362104306	-0.575712878956837	-1
0.7121515814182315	-2.133504338327309	0.08823802529337318	-1
0.8370160118174219	-1.840549067330078	-1.238614586468658	-1
-0.5956599786890354	-1.5599604911570228	-1.1662780123813068	-1
-1.3098381899986566	-1.8368404936108824	0.1748537672748493	-1
0.23444014694110848	-1.6795561882205758	0.5912090431497486	-1
1.013748156590657	-0.9015437318071776	-2.112230018093716	-1
0.49919279194254706	2.8569557406440795	0.4842325559990485	1
-0.623679295488826	-1.2879849317810508	-1.5977353321330614	-1
0.042865594217780606	1.8160273668239382	0.5669512654384555	1
-0.49811432789952736	-0.5526035684564221	-0.2994000027028549	1
1.5554959829893082	-1.702471822543437	0.9924329009368142	-1
-0.093268481137258	-1.095107273315624	-0.026473500605247075	1
0.43040759877200147	2.2542985978499352	-0.6181720154038635	1
-0.10693021937596481	2.176953434302454	1.003015550754638	1
-0.6394593055012583	-2.622463982930198	0.09228649823880636	-1
0.985365213471675	-2.3624661510130083	0.696228007975844	-1
0.8964449425954952	-1.524080596281404	0.9682500021849461	-1
1.422147109308943	1.3710831372375487	-0.9148187088454267	1
1.3140075317003013	3.0971800473077606	-1.7397793230453737	1
1.3838882989661723	1.2014342553023893	0.9691077578126914	1
2.4341335890602176	-1.0984739361513647	-1.1021727742958347	-1
-0.07524519004712243	-0.6712506687685384	0.5180520081884699	1
-0.31558423610479613	1.8375339146603509	-1.4521919447963842	1
-0.013411525508645604	1.8967965890493717	-0.6809968860303528	1
0.14692732513068915	1.2437363759888662	-0.40961542357597325	-1
-2.032542764891461	1.1656638489227935	-0.34602392069611215	1
0.6720677158725442	2.384575216074379	-0.17692485593589927	1
1.5555558094277235	-1.0592468328217721	1.7525061336373196	-1
1.7202377564415472	-1.2856748197108299	0.5150451009292014	-1
1.4204794626489141	-1.4861997679824734	-0.13473374322537	-1
-0.6428532520045926	0.9667273994252773	0.17696852928194262	-1
0.4261986397308521	-0.6831655629728954	-0.2788911783887786	1
0.8679028596880178	2.708144923672865	-0.28858542922129155	1
-2.130561403023733	-1.7620849625823265	0.9738196382383149	-1
-0.319670587857015	-1.0819218892893794	0.3973008012409791	1
-0.5344506985280238	-1.5313131113594811	1.2131550922547039	-1
-0.8795263886871183	1.4906506891618658	0.45971772750566564	1
0.44524573583038923	2.2057539857315374	-0.20423949851458217	1
0.023539853249324227	0.1618738521737484	0.19729703192276196	1
-0.34479946189632754	1.209679792854927	-0.037191751758930726	-1
-1.0325849235856397	2.3220999928106507	0.5851595973355018	1
-0.8544208181038213	-2.9195963650047965	-1.2368682571341614	-1
-0.9480215736787736	-1.5777821987289586	1.136525622306853	-1
6.302453716727719e-06	-1.2825416977962165	-1.8567881272752034	-1
-0.004576294473177562	-2.5741626589903746	0.0713708362612796	-1
-1.3798243412889342	2.2650457161056528	1.2010582772483478	1
2.553644090332021	1.6028644491923445	0.4827103490535584	1
0.6616524480066905	3.173555860014609	1.3601338634318043	1
0.30377208313409776	-0.68665944920421	0.5576327747165143	1
0.576087256761596	-1.995557653829572	-0.47356774056001244	-1
-0.04946737163372611	-0.14518896153173658	-0.1450032189911535	-1
2.201181445902747	-0.43814757038325036	0.9318098986608994	-1
0.5854787727176863	-1.7093184535209909	2.1450337963804436	-1
-0.28177691970118723	0.76447894997439	0.12779657426976618	-1
-0.7102369244525281	0.7062015907167708	-0.3029302299567339	-1
0.47793433658047024	-2.8014187643537967	2.006808911333095	-1
0.6338568562957457	0.8930241874103235	-0.30200478212174925	-1
0.059863862318469	1.1460260668682218	2.031151947296189	1
-0.2436222113501344	2.8753526457956613	-1.3999720162609623	1
0.09479170602557421	2.3978995047955	0.13356562576167869	1
-1.4021479865644284	-1.3441721326310982	-0.1553348638472244	-1
-0.6689913990387477	-0.7197316871235082	-0.08860164761054608	1
1.2867950740217948	-2.3371060228980167	0.4542577177698589	-1
-1.5847585153896349	-2.247904238171456	-1.5156519187957727	-1
1.6894485530224466	0.44008023800946267	0.535929143079712	1
0.2916769525917407	3.846672095074459	-0.38853823198843035	1
-0.7562021544375372	0.8519573370473785	0.1776472885674527	-1
2.302800721267653	-1.2535438491892676	0.7192555970007287	-1
0.12235328152618699	2.8427875981970305	-1.421896098483783	1
-0.5620437486771894	1.7235484312303608	2.741297779013621	1
-0.2230731357342302	0.6719009309010983	-0.8596703136453467	-1
-0.46203958431221515	-2.1184250620269998	0.7974021708431754	-1
-1.7941203490457327	-1.0571424276985641	-0.45977422528959916	-1
0.10120202180321246	-0.29110250965697076	-0.0008292356320511889	-1
-0.3416413651931755	2.3072869541755465	0.9891840266308233	1
0.0758864652565609	-1.7192978164405255	-0.4370212597760965	-1
-0.22117985767752565	-1.8631216850467185	-1.837975533248627	-1
1.1902866897467117	-2.065737281833417	1.4291621571755657	-1
-1.449902180592753	1.771437834162358	1.0636212204392193	1
0.7415227202815357	1.9344245320682498	-1.5778129950186068	1
0.20759592572718955	-2.594468443641302	0.5411745936038689	-1
1.1027606850696714	1.7865228995164502	1.7606660961008886	1
-0.1870892139970345	1.8811256107881347	-1.2008483732920707	1
-1.7659968361537404	3.0700394980749595	-1.1231863468334595	1
-1.3554473984480984	2.1519384337765874	-1.0445684749458939	1
0.6130888227087994	-0.8821376701507104	-0.36691784410857986	1
0.4039905807008727	-1.2669416292951146	1.6418877999290133	-1
0.5868831052381863	0.8260889792004766	-0.2679861013182394	-1
-0.3172037136668972	-2.0851224308079335	0.18036553066267497	-1
-0.10933202514021279	1.530008688712366	-1.3405430202811965	1
-0.04674632134529793	-2.825369976612216	-1.0526743306449153	-1
-1.3469011239130253	2.6306929001366814	-0.11834984508968	1
-0.707136446931948	2.806291959402504	0.895240671087802	1
-0.06514179995463192	1.4273147681810476	0.7235382548957613	1
0.07500617142531753	-0.11168809297044668	2.1459155838221107	-1
-0.8853561120486045	-1.7635205919494277	-1.5772557491065742	-1
0.04607513072389069	0.11806983022297585	0.09005897824962332	1
-0.7762541403434381	-0.5689485168920817	-2.201157936898218	-1
0.08946067799691815	1.7972953044315816	-0.9948792814162593	1
0.5379292239852828	-0.7683369843455227	-0.09406414461335742	1
-0.7702166945392426	1.4790283065750767	-1.9440570430675939	1
-0.7150627985876822	-2.881144531531548	-1.2649175732363023	-1
1.0875533007665557	-2.115156472732272	0.0015133108902107035	-1
-2.412409767888965	0.630894114136787	-0.20267410147781306	1
0.16678913422691335	-1.542382058610908	2.6467321979382468	-1
-1.793774219094165	-3.3698139841858024	0.5283766343920152	-1
-1.6808275311665402	-1.8821538210023476	-0.11612321091728335	-1
-0.8894112483549583	-0.2510515522425959	-0.34800364146985474	1
0.04315517268624128	-2.561545808589658	-0.6824422505059516	-1
-1.2949700829053705	-1.1699997698188658	-0.9930503410105742	-1
0.5201707049178818	-1.3096919800559534	1.2420576630633897	-1
1.7045084527014334	1.939403162080585	-0.5650707985527746	1
2.177476792278894	1.0980486531838243	0.25873198332421593	1
-0.31378096649190795	-2.073001783805266	-0.1583088281006989	-1
0.08071386044435801	0.39991073297324314	-0.02508283308267513	1
0.9370361274024939	0.31212269591654473	-0.5333167895038791	-1
-2.496091756197711	-2.0591611042644895	0.32122789467734764	-1
-1.5648724770793145	1.3781514987687384	-0.19463950945570022	1
2.274408673927448	-0.950891173665887	-0.9339179264472277	-1
0.8568909069727785	0.34194533076989997	-0.3492648715532387	-1
0.09072763168057807	-0.19216583316784758	0.04650153105268602	-1
-1.8464942669223374	-0.6565692055306884	1.0829795330224625	-1
-1.947104854317972	-2.317802769418921	0.004696622079235347	-1
0.3892477726090615	-1.4911632859710267	-0.642644887288934	-1
-1.231635347880006	-2.092931919411225	0.6777815298948586	-1
1.679695182841795	-4.266180914696675	0.6137438304825446	-1
-0.23936900756210422	2.373399428002372	-0.2888511713090324	1
-1.343141392117002	-0.649703313477722	2.404241350495548	-1
-0.6791170267817082	0.47069827165564515	-0.134755093321017	-1
1.5474602465455596	0.8845332345225563	1.4777116732365954	1
-0.946114138999222	-2.4916272730742306	-1.8394348744729343	-1
-2.1674644685651834	1.6376251471140393	0.24960548424598242	1
-0.3900267395044557	1.7319156765187111	-0.9592852403613938	1
0.08254085363838204	-1.530539134202435	-1.9506868177763939	-1
0.1869016081214779	-0.8565905961103377	-0.5134449050904545	1
1.4512595476970787	2.5316614459037865	0.36889543844996797	1
-1.2568061610085963	-2.533215058909316	0.29188178909374396	-1
0.20417973039406895	-2.681655475129823	-0.4086118980246493	-1
0.33378415792200944	-0.9494104589376567	-2.3097325683066305	-1
1.6332440268919184	0.5196593756144718	-1.0642255704514525	1
1.2623625010897002	1.8577074864592888	0.6362056719178478	1
0.9370725047632406	2.4409875723233565	2.076844461518647	1
0.8721566712013127	1.3525474645632287	1.5332322633610331	1
1.6624096414892717	-2.3322814730529853	-0.77608427810194	-1
0.08081207230489196	1.2888439175314703	-1.9504496700172382	1
1.044282723830865	2.217802543663209	0.7253684692092299	1
0.4815610280731415	0.6304980566503029	-0.9174951046016178	-1
-0.07717672937521591	2.2224215600196287	-2.001173729686806	1
1.7534646544041792	1.8858709343636226	1.5903075175059032	1
0.9002667790657544	-2.5010734540785666	-1.8259050668300543	-1
-0.164299979304656	-2.6837563908994513	-1.089827597704853	-1
-1.273085987133839	-2.1053687596124284	-2.0081648947456183	-1
0.8495611035823352	0.74034344385673	-1.3635446620263387	1
-3.294338413555813	1.0362799386848955	0.32596783629629245	1
0.6212428055854753	1.1284509008666956	0.9393760228781697	1
1.2905031653246046	-1.5711803651660936	-0.8200517816135916	-1
2.4644378712850834	0.9409551287374193	0.3985927803124094	1
0.7591213174397287	2.830951324184643	-0.32050420858658374	1
0.14713269156387596	1.7586868349188507	-1.4855151654118288	1
0.4010492949057478	-1.3506680035400076	-1.7684262349113038	-1
0.10866000221997828	-2.0214719265647543	-0.8943512550089766	-1
-1.5941874344916087	-1.4749680151786562	1.5068762722609716	-1
0.527850707397079	-4.023972211773613	-0.9832429046193497	-1
-1.840528231222609	2.956442174662662	-2.1856423542263865	1
1.274477861111333	-1.2407230571187045	-1.1700441811083282	-1
-1.1703581538192418	-1.941478044803497	1.732997403779013	-1
-0.8844540874896416	-1.686783653615953	0.7382467656392049	-1
-0.4238523355089977	-1.2269765002200628	-2.1112893163674133	-1
1.7980631110545737	1.531942122802308	-0.5092421296932047	1
0.9228442105131542	-2.2325618020898554	-0.34404106507206017	-1
0.13201354810168486	1.4842221179564294	-1.425586060126673	1
0.2773724671144923	-1.7142955853181634	-0.9222723409362731	-1
0.3761483553132219	-2.1755425067767695	-0.2129775748414315	-1
0.2363127882273438	-1.0945593582898148	-0.2757405022875425	1
0.4887947953585441	1.6587108573310827	1.882125973007014	1
-1.179440260936135	2.731775366085088	1.5590760268112043	1
0.982023586509923	1.3769093651916964	-1.690179104796936	1
0.5844869576630792	-0.7769990462783264	-0.24756705703367898	1
-1.1466437066857815	1.4209826204243075	0.7419870598159515	1
1.4957718577411316	-1.7177570695245228	0.22281409007096842	-1
-1.0098931284798311	1.4763408618100997	-0.6310956141916307	1
0.7743928804693205	-2.1702771554183657	-1.0292127750233218	-1
-0.07445650384144896	1.8669066491983974	-0.10411469434616577	1
-0.4364282239399695	-1.232233802896614	1.7063965266936738	-1
0.1106223127045075	2.1608210704817394	0.3115277659369357	1
0.5937342811665943	-0.6007571655351193	-0.21683500270372202	1
2.0316488795924132	1.879869179612922	-0.1458306552040387	1
-1.2724119535430414	-1.6561068613827228	-2.0111214261150865	-1
-0.2263720005182439	1.3064732659700293	2.12991738668526	1
-0.7232493286479655	1.8009755460044545	1.4525260356882124	1
0.16732829950424438	-1.1546848004618888	0.5196919523061253	1
-0.6849461061551336	1.7016434029181386	0.9177428943273984	1
3.3550446611299054	2.051330868342782	0.8150295091909607	1
-2.5680331846326467	-0.5041366214059184	-0.039493410239219144	-1
0.5691188410582229	2.662125434654277	0.47634784619029163	1
0.6923097732320657	3.003508727634466	0.7934474065124398	1
2.9588551318338796	1.9595921920099553	-0.3043130208385043	1
-1.4754447741207215	1.1141218711406908	0.6999594918706424	1
-0.11854744294600644	-0.4837186256120329	0.06300361320690502	-1
0.06993988601832567	0.6211491484631164	0.22164708061178118	-1
0.17887028277602957	-1.775855042290193	-0.925234849910122	-1
0.8667098837451761	-0.44497340042824596	-0.2542489132805092	1
-1.0665735119448119	1.9125948231267413	-1.0974133780242503	1
0.9554718720177672	-2.439026614550955	1.128549969005754	-1
-0.1657624538693275	1.4669145994504484	-1.1857717364678275	1
-0.02880282655795088	0.4755563091023374	-0.05392915234259076	1
-0.40898667972139346	-0.8528688406100374	-0.06843182331449175	1
0.3046829965315742	0.5055672420636061	-0.7463586213963886	-1
1.317722000786929	-1.3049019037680971	0.0755664515984579	-1
1.350053603880795	1.2461046113355485	-0.7810766119264109	1
-2.0406808082779193	-1.469322394314236	0.044930550457379766	-1
0.6770134363263369	0.4387942859038021	-1.7142828305470539	1
-1.2340627770138461	3.616249000912646	-0.6388103447374177	1
0.7238462142332038	-0.4300662547322553	-0.3959822944107771	1
0.43663502597804094	-1.5532135874263728	1.0475101886148164	-1
0.7716876334161782	1.9573680579520543	-0.1829389230348707	1
0.12163663071972991	0.967116626342334	-0.30625238716508185	-1
-0.7343619113356558	2.4313647087726307	-0.48235996060074193	1
-0.02705826978108818	1.0222157214502308	0.13813327835820755	-1
-1.4936773891753237	-1.151640232737897	-0.4153715468189395	-1
1.2525144227185108	1.9104941394793897	1.2363857388497694	1
0.6013060316938832	0.9896898562426335	1.5954238099570033	1
-1.2695500757440898	1.3752797588046644	-0.12404797826256742	1
1.0096810860558754	-1.7886598514200518	0.13968175608866992	-1
2.392577839979935	-2.0846912943528606	-0.23544668328628837	-1
0.433001950751734	-0.6070808506196733	0.22864611766532894	1
-1.303343027046318	-1.3195410352917767	1.539426656567703	-1
0.3975428836863628	2.1705129736699758	0.7287515260629195	1
1.0202280824658465	1.884551777950543	-2.1612444416173013	1
0.14705575035407273	-0.7347498406039822	0.7296908859526576	1
0.28501354114605826	2.964596972466189	2.244171288160893	1
0.46180395300876836	2.3616975508749376	-1.1047387366112422	1
-0.45647455842511875	-1.3118089678867924	2.682501652015955	-1
1.8032472172408263	2.387337942750697	0.9977761458090302	1
0.3720781262963321	-1.2426254235994	1.5218581073987547	-1
0.6394170647397719	-0.9362011765352979	0.447657138908641	1
-0.5004960407480458	-2.3241025088146103	0.8525516350302573	-1
0.7485838604767228	-2.220839642816666	-0.7776106499022399	-1
-1.8838944787375358	1.6463762966621438	-0.7370077611294342	1
-0.7224485199671132	2.2640383178348773	0.2815175875875578	1
-0.2688278080612226	3.2525899756940166	1.0972952280400374	1
1.97283960859481	-1.1162617570871267	-0.20167814157714178	-1
-1.6235364271166561	-2.495677322913964	0.5822343977784125	-1
-1.9004074326569473	-0.9583502555956133	-0.19104245862180988	-1
-0.21377701921042527	-0.9247478223637741	-0.192972077497228	1
0.5433910049157329	2.379321320732669	0.8969321413521567	1
0.006114871869986196	-2.0488583014945774	-1.7980908190323754	-1
-0.12418802532854237	-1.1782573859188323	2.016012071859881	-1
1.2354748745997055	2.623652893567229	0.42732499737378327	1
-1.2853925113046942	1.3296122560112078	-0.22743548673250627	1
1.6333981600875462	1.7546469054975948	-0.031096806620659112	1
-0.8990163756241387	3.963230843491699	0.31104628800796763	1
0.259689430514003	-2.076530285104224	0.860094391422372	-1
-0.5119297660257827	1.6743996908074548	-0.4285483675987388	1
-1.5181286915528027	2.2396960985015606	-0.15744046294660696	1
0.10639418340456418	1.7201787675174043	-0.3384582933595294	1
-2.513147202035218	-1.589696140723827	0.32466382433183183	-1
0.44600284108186794	1.0016802699551413	0.42993503638187747	-1
-0.26585268213341146	1.747868717263139	1.2913191992570612	1
0.30422292461847067	1.649563226111951	-1.9071456903914585	1
-0.3001283140276048	-2.2026756863633126	0.8763472454899532	-1
-1.3313521176734815	1.4622099171699283	-1.4481138416435033	1
0.9072801797756956	-1.1473815878526314	-2.15738756674651	-1
-1.2967257712935405	1.7879686089660933	-0.8537799883231308	1
0.7815217576771948	-1.8377854609288626	1.7599107128411753	-1
1.2241046107074145	-1.4944083678285371	1.6103548163351709	-1
0.5253728785609763	2.907284616853194	0.5688065759291094	1
0.06250049316723916	0.6692636384832581	-0.4359300212845004	-1
0.9418413394341603	-1.1799056438511204	1.5328600524851463	-1
1.7444445617789133	0.9265696635144377	2.7152048348359012	1
-0.6074320343188053	3.578390567921925	-0.8847405519278158	1
-0.48988709768851635	-2.8821739028541224	0.5885234970255762	-1
-0.6535277229680143	1.5642777172784958	-0.5927370734088052	1
-0.8445932923746707	1.7487029465262873	-0.9865032427357614	1
0.5189947055488754	-0.8205028281196575	-0.18277842593447344	1
0.18499397467341586	-0.24870925172172167	-0.0009263956772915822	-1
-0.845180887091753	2.6616183925847174	-2.1363525712001348	1
0.5187301403566281	-2.5348324516494456	0.297307863009648	-1
-0.0054808598813419415	1.4140262697235135	-1.1063257140924385	1
-0.7949700853611605	2.149222093096465	-0.10606564541047481	1
-2.3405236419687068	-2.127723575277789	-1.0963523537027442	-1
-1.6591857973011483	-0.736765902836692	1.7945339601327743	-1
0.12364717168998166	-1.3573456410200144	-1.8409361460607778	-1
-0.3252053034621878	2.4803007174120135	-0.9271090072390203	1
-1.3886609288355805	-0.9728181961009738	-2.10504584266099	-1
2.822688384546232	1.8679590666531334	1.0431666865660587	1
-2.0095590459562156	1.8129670452887248	0.5065886041242628	1
-2.19926742718726	1.1691278080468783	-1.0324735192096457	1
0.2653317821555393	-0.18441376310774016	0.06275891508237433	-1
-0.801253668080677	2.0237287706949116	1.666045321517445	1
0.7799580782311727	0.428076775937533	0.22067121971040504	-1
0.0030070488462247778	-0.21020280018799156	-0.0026067139671870796	-1
-0.5684225119362103	0.7427751221049422	-0.20326329460282033	-1
0.6283928425409295	1.8129701517864831	0.041346031147923054	1
0.8746917142556985	1.553876532002512	0.5546836695422193	1
-1.3012555900229734	1.0698873055883937	0.4061991744939592	1
-1.7433038120021291	-3.023644165962138	0.28922718940121167	-1
-0.23590696009439283	1.0437258612703322	-0.5271395000830672	-1
0.1818795544806986	-0.30211752031985106	0.04596480698756436	-1
-0.5964837061920439	-1.7311222234054537	1.3074335191008986	-1
-0.5497963199251078	-1.9162540859988284	0.4538955682320559	-1
0.699129344507886	-3.2347467936115857	-1.3360898347765238	-1
0.246323013251209	-0.5265911117441783	0.7413923728591263	1
-1.677525050267801	1.3106909092901273	-0.8780868409473754	1
-0.03451084071656265	0.2017984267506151	0.05692923203805329	1
-1.255695109859789	-2.7784585262312342	-0.49541709046320215	-1
0.30492978054380093	2.0941595378439732	-1.2780858676588804	1
1.2684937291576608	-2.50665735174277	-0.5544047171717862	-1
-1.5154123124259433	-2.9405459209888534	2.2234820701600366	-1
-1.5307120357639694	-2.4273229647248686	-0.7162895377392492	-1
0.23102263453460897	1.7026922124069341	2.2363054670139024	1
0.9615336373403199	-1.548077035530033	0.18092913626045473	-1
0.19914621442336733	-1.654033277930713	-1.6004915029591986	-1
0.44482434667567355	0.7801918179777437	-0.7212334782750622	-1
-0.7980653112788599	-2.9032414910789686	0.8183957387108386	-1
-0.07135275784108842	1.8049272165363108	0.670374220304202	1
-0.4434554266821493	-0.7137007680670528	0.5523960734244139	1
1.5522337404562723	-1.9551902723355117	1.2842773854088507	-1
-0.31487643561764256	-0.9466349476812289	0.5538205494464463	1
0.4070160789611726	-2.172495909911412	2.015863138796499	-1
-0.5436600946668294	-2.310142083343838	-1.1513972610008922	-1
-0.4786720257833377	0.47486928960831637	-0.524528591673781	-1
-0.35607658902992806	-1.3102871071550617	1.6331792427774983	-1
0.017660284221253163	2.092832340337093	-0.7942103732968014	1
-0.23340774366409606	-1.4504813107111156	-1.4629257612625581	-1
1.2123565572482944	1.8127498092365586	0.29044018769726226	1
0.2853326890884365	0.8174349123503207	-0.4758439290667795	-1
-0.7577762540693846	2.490381195865711	0.40721703525306047	1
-0.05870331848842175	-0.13488984117910585	0.09270734846011061	-1
1.7962443843864346	-0.8366733687440286	-1.5186229832654814	-1
0.8970015959294986	-1.199593485170414	-2.1729660722122826	-1
-1.2571611580770992	1.7293792037564377	1.1754004585940598	1
-0.24362286222106444	-3.4875902942749804	-1.2339426461689134	-1
-1.7903760945551674	1.1381294250857235	-1.7574124988891606	1
-0.33716551664821576	0.5542058342841751	0.9217750061437215	-1
-1.4937618806921675	1.4867416360198613	1.1381622720967783	1
-0.6442042558092342	-2.1519795316675654	2.121137781892304	-1
-1.233958585385444	-1.6189831581219858	-0.8547453330517268	-1
-0.06368270971626548	1.7779785465587037	-0.17818906293036332	1
-0.06883405825783374	-0.4982657792740954	-0.9352919286811254	1
1.2113532612472824	2.1548037981398163	0.023450355556404276	1
1.8901639706502902	1.5609343596333667	-0.18620918345822507	1
-0.32121058637796307	2.5618705839748994	-0.031505207051477045	1
1.767053995586961	0.6671673246577363	-0.5609248971470129	1
0.10207752727003022	1.2530887236371022	1.003141536859188	1
-0.39499842439568406	-1.6735198279564623	0.07408034182035757	-1
0.0677274134618843	2.3697863100490695	-1.5818142274821483	1
-0.7448818301227208	2.1259850003356395	1.3161258581465585	1
-0.09852945401335292	-0.7923130975824346	1.7661887528658071	-1
-0.17446237447183094	0.22071364333839943	-0.027749905615971515	1
1.3202167751662401	0.9414002183854072	2.0512549697734044	1
0.036533280377374765	-0.8005330313614163	0.04212237224320688	1
2.1677763610091936	1.4169795791904045	1.271676389911991	1
1.8513860514639568	-2.1417431246595866	-1.4874968386796734	-1
0.7619549539684956	-2.8634293293568325	0.373496692184665	-1
1.1900593509372197	-2.051017911747236	-1.988833101357721	-1
-0.4603032151919078	2.4734671721323256	-1.5929153425088451	1
1.3661458441417476	1.6540294172509153	-0.5995064321486908	1
1.7723142791281425	-1.6033791000637743	0.2779305770048904	-1
0.5620668863001194	1.794168044056633	1.4869228408318793	1
-0.35355639455940713	1.231391366281723	2.300200475914476	1
0.24593810396231597	2.8201271894405426	0.27010073818630737	1
0.7616225904116556	1.5741898657892432	-1.64529627879293	1
-1.0713129054889297	-1.9570965248913528	-0.6836678694542966	-1
-0.2938026539323003	-0.5983884072214596	-0.5183751125793481	1
-0.41711116616684835	-2.3541262415555324	0.07259403408541797	-1
0.4528079528682426	1.3598514247656217	-1.8858249534210623	1
-1.0909392879386084	-2.3973319613911506	-0.3520810716135381	-1
-1.4116545696536142	-1.4030261669956001	-3.396907684683324	-1
1.5904193266653626	1.2772087179423464	-0.8809355087555407	1
-2.0344474266569414	1.0244834970234116	-1.9147123741623497	1
0.06384735136279927	1.891795700019015	-0.21955090612592243	1
0.889575017092829	1.7340371280437523	0.84541579238828	1
-0.7694982297201944	3.2232556472064964	0.8255573217435199	1
-1.283917443784783	-1.5866194190990752	-1.0640487157850422	-1
-0.5823792633579832	1.964116674913009	2.105886229212609	1
0.12566806401395644	2.1013674917672924	0.44404967268047485	1
0.33999114750082265	-0.9054927401465807	-0.5506251436397449	1
0.9645874661069448	-1.5517870768872766	-1.5657417893378438	-1
0.35796877853574255	-1.0897790880630158	-1.555793671139502	-1
-0.028858210220060757	-2.6108621002412087	-0.938290199589869	-1
-0.7307092062767593	2.3775053933411825	0.293633781580028	1
-0.49032833306607027	-0.8289440319944064	0.7038930954082747	1
-0.5922887445896856	-0.7742129415031438	0.7313648232602881	1
0.3865344016211313	-1.2636612738887945	1.6267144213941096	-1
-0.0645998899652419	2.917584487593858	-0.7810304612822176	1
-1.678084327713511	1.1088845284397277	-0.8218232147338613	1
-2.010718042971702	-1.3875558909454488	-0.8994827925137037	-1
-1.2788929766459305	-1.8469370851329991	0.1925413837094956	-1
-0.6164407893326422	-1.7194707033614454	-0.7284742936259159	-1
-0.7207472272382824	1.7703634851602819	0.19431035720677656	1
0.7604548270479208	1.9609724696789241	-1.5258105076603856	1
-1.5726877824458891	-1.0351266923062028	-2.668889778314394	-1
1.5236557794454988	2.0766224869912304	-0.29154476189811424	1
1.7918410657543142	-2.543217323391995	-0.020610188769180127	-1
-0.03247151290647874	-2.617941480778061	1.3692060730103066	-1
1.2892939435097086	-1.7438036470806502	1.7338232299294483	-1
-0.9400541929239336	-0.39775905101583214	-0.32185362264925743	1
0.0023740140700581752	0.7406015434995428	0.3594409612891192	-1
-0.20394609438169264	-1.4866909581466659	2.128299323876751	-1
0.5142234952670621	0.9452841564126624	-0.009898859793940291	-1
-0.7288189544379073	2.251193690304578	1.0142931237639032	1
-0.6894511421777642	0.15491156972526476	-2.169435615136677	1
0.8610633438071059	1.3522711240920855	1.3137396929745522	1
-1.0319799025542504	-1.6284524586656055	0.08847968860794074	-1
0.37618602615641483	1.534101442594352	-1.283636315260701	1
1.0812941509914846	-1.6391081683720807	-2.2948880465454518	-1
0.3976756386572571	-0.9161664865435631	0.2973008534013532	1
1.5770060034194244	-2.839871203712216	1.8919255315968166	-1
0.07364628514107459	0.22370991675368615	-0.4084678196145115	1
2.653422821162593	2.943207468022692	-0.9375849466627619	1
0.6304937748110309	2.5045212053011148	0.4338013095256259	1
1.2320313432691774	2.2597119968271384	0.6612255627600515	1
2.017635320330345	-1.119653066727263	0.8257030256509206	-1
-0.21265951804429759	1.0743809147781698	0.2791655045417338	-1
-0.5577253726832563	1.4713358272892052	2.025012997877807	1
-0.687520989169196	2.261313954066945	-0.46082815215961087	1
-1.0066677909678416	-2.2473791271698844	-0.2616932595501897	-1
-1.7768257971278634	-0.9529096614925504	-0.33253807859615464	-1
-0.5774154997800803	3.185778045163191	0.781836092658817	1
0.3469939627489994	2.431649505008779	0.27675230523990213	1
-0.1641054370452881	1.0056865543101452	-2.1230091872113936	1
1.9977840254273298	1.6891668000900844	-0.1857674033687351	1
-0.06319559727744321	0.07352874866721598	-0.03886651198090305	1
0.5418574404187759	2.4142253307486228	-1.1158327706453202	1
-0.3283126501162883	0.712459755346802	-0.7289241923810729	-1
0.048244512326183514	1.8030622668154852	-1.0168714585418552	1
0.35419869788566977	-0.9283478395191477	-2.0095946062234202	-1
0.7588438355897481	-1.9040939789779714	0.3670074691319676	-1
1.5538597329900394	1.7153569823741641	3.3129250654404205	1
-1.0935339056560631	-1.3565839036235574	1.7844387207366799	-1
0.17736790553356901	2.0602394943040867	0.3596591097215441	1
0.39422902496326767	0.3029675588206133	0.686511240087037	-1
0.9319888957575384	-1.5813974437019818	0.32009513740919576	-1
-0.8209772951770238	1.252042988448425	1.842186445732172	1
1.3845119255119533	1.3394897719055847	-1.1065681520996238	1
0.17949227344053864	1.7211271058524404	-1.3112192558785374	1
1.5427217679751029	1.2962859035238103	-0.7022395618362227	1
1.8322792542844912	-2.3445334688108237	1.4258445317037778	-1
0.7149982435361785	1.485695764931732	0.6814080017208589	1
1.4849280802198097	1.6077693752714013	-0.49392529352025805	1
-1.58572635507159	-2.856101410117314	-0.402071413346007	-1
-0.0319344658142473	2.0171150666231266	1.7697891939888863	1
0.4972927038480335	-1.5092818125994627	-0.9963123430644164	-1
-0.7528585319820084	-1.7747496628540418	-0.5372247818705208	-1
-0.0055697126744336	-3.1377665041136322	-0.8181753355059822	-1
1.6868665017857396	2.069874012478381	1.4636355429554662	1
0.858691849570109	1.7421241904379394	-1.0258510884197214	1
1.472551555793598	2.832341422458099	1.1168845084096002	1
-0.45608856624304794	-3.1106384803903566	-0.36024040110888395	-1
0.19444213104419475	-0.7071986918723472	0.9717227608838286	1
-0.4917785469626277	-1.8547751564879489	-0.3506927273367668	-1
0.8116306893833104	-2.470080683961902	-0.7315432945933855	-1
-0.06932913880152708	-0.06458601207619812	0.06334672452725203	-1
0.8788839440639917	0.5111444047050581	-2.4013590760839088	1
-0.9977807542400994	2.7598877185942623	1.0336885940475415	1
1.7526930743102147	-1.6735182137209788	-1.1459999378196892	-1
2.523148773724616	1.5511219002456713	-1.2016919139864604	1
-2.52162242632361	-2.629795044454909	-0.19582697930264067	-1
-2.618796230278667	1.9002048244685108	1.960130153961793	1
-1.0201224296402587	-3.4072162737824088	-1.0710587777653877	-1
0.6240945041696233	2.3508622057835535	-0.02141341128435356	1
0.2419700501020933	1.9510382397610102	0.8825213568755177	1
-1.247300634814416	1.5434081939584576	0.8077382378853619	1
0.06834782683190768	0.10853730969552802	-0.07485567130579343	1
0.012959754136286087	0.07913687165998864	-0.03543834599424039	1
1.4482786171769881	1.9098011530034542	-1.1849683707062562	1
0.47520824649257626	-1.9184164089112068	1.6814169920220146	-1
-2.8532726785939873	-0.4331176271092734	-0.6715720783586877	-1
-1.567249711453397	-2.1480278766786647	-0.503268936000714	-1
0.4156526058039982	-0.7353206532814028	-0.5392559249177138	1
1.0376608657798039	-1.6543404288429764	1.6559355123306894	-1
0.3629034790269405	-1.2362968025984378	-1.5568805561160837	-1
0.03639012758089734	-0.14940018761831567	-0.12708348589086885	-1
0.42967696697422	0.6768167933944773	-0.0120333157195217	-1
0.21065531348474345	-2.4529452538393843	0.27467063516707974	-1
-1.1756716946707746	1.9161932791963652	0.5971359410920501	1
1.5702151635105894	1.0292535156613771	1.575177746308924	1
-0.1328462265173553	2.270712424156241	-1.3107056108943043	1
0.8209352331726694	0.41186129796160503	0.20799814006054906	-1
1.106046545239084	-1.2335146918710098	-0.8150850006995034	-1
-0.5454024922887725	1.551868736699703	-1.9590209657026219	1
0.663502393900445	2.411677126175833	-0.004787297326753242	1
-0.13244444207453837	-1.4523480681073075	-2.353934469194589	-1
0.9677388555453942	1.4220912019371967	-1.7628240983062735	1
-0.4632947586235352	-3.0503204537594844	0.22285174169773506	-1
1.3064619131541104	-1.223389650485834	0.7885844916878195	-1
1.8039552543953807	-2.3355902338595853	-1.884804409227806	-1
0.6899314703960496	-2.13359927016131	0.684774513936851	-1
-0.15167622814745885	0.19191492944540578	0.05342395120495566	1
0.6974592947807503	-1.970157975857915	0.7843723414875315	-1
-0.40230855768187834	-2.0875483434159623	-0.18987632510692676	-1
1.3881084337943563	1.0120004276296262	-1.302962741109793	1
-0.14459588168759974	-0.49987935263005545	0.5976639951822663	1
1.9403243735458926	0.8734619392955469	-0.3774757859641087	1
-1.023367344922739	1.7106864250336509	-1.4419154389441498	1
1.683172130633076	-1.590903473117411	0.2327737469989132	-1
0.45945239002485555	0.7792953877156776	1.7460857689655995	1
-0.27945342327334804	2.91380545777724	0.3272972958039312	1
1.3453718841114988	1.9782050975949947	-0.13801416205662007	1
0.6357502593855512	-0.9491206036979736	-0.4352207297719784	1
0.08315648264556189	0.9589621600859971	3.4712786935795394	1
-1.197790736673366	-1.9934149064230215	0.19113692179884095	-1
0.6808393631934289	0.43577626009756987	-0.47085525100949116	-1
-0.6964699427213223	-3.07345237881808	-1.973056701436627	-1
0.024961542119520407	0.34978762277963615	0.06907374143554992	1
0.228084007970499	0.8642427289448738	-0.22757473370396042	-1
0.6932896904587736	-3.047893790065695	0.7874458835811177	-1
-0.005584245065081473	-4.016374549852388	-0.5169186802015735	-1
1.9871130591836808	-1.5197490803726394	1.4485988269231136	-1
0.0256987523598962	1.8414050222691647	2.0716028128797825	1
0.8557534793207483	2.6077025102621936	-2.214556327328523	1
-0.8121569469689917	0.6322706811411563	-0.039507292100003914	-1
0.04720235006449077	-1.3768794197607797	1.406739093308145	-1
