0.3461767461301619	-1.917003992115208	-0.8666607162185092	-1
2.6482149592371798	1.2434315599447743	-3.1259445132473065	-1
0.7803085039306623	0.09783235875973756	1.6819142688372553	1
0.10595440668387889	1.3462024320735508	2.0696630562027063	1
-0.058200987816445685	-0.20024614109541986	-2.343393845550945	-1
1.5541070906740941	2.2930258521231797	1.3910926880391778	1
-1.6527992957644515	0.11245725733729198	-1.1194938844852156	-1
-2.116596311724279	1.7079832517055877	-1.6698977356040965	-1
0.5190077445384818	0.008694614023351954	0.7795997642618174	-1
-1.2822648883013776	0.7601762282868106	-1.2999482689933908	-1
1.394312809891102	1.1090161235421483	-2.1650951637894793	-1
0.0618083782480383	0.016781233276370783	-0.20259800579380102	-1
0.1807234946500038	-0.7680503024956196	-0.50350824720433	1
0.6695893740823373	0.11275098081851918	1.8603914614595003	1
0.5397652770739869	-1.1034017046016673	-2.1028864075442413	-1
0.31554044352868466	-1.4538176051193328	-1.7157681417243573	-1
-0.6366294835772034	2.392520495082504	2.0646287115132735	1
0.5013810689743926	-0.323757995049868	-2.535238689552211	-1
-0.6584512851890015	-0.7708963214408824	0.32942745794618067	-1
0.9305840951183282	0.6277765868572146	-2.0071567347676535	-1
0.9390156968553844	2.2159442550710198	-0.6427499292639958	-1
-0.42986636969992154	-0.974577212414231	1.6430776871841186	1
0.7822996938352595	-0.41648621721517565	1.9691047557060495	1
-0.9177122697604949	2.251900689735632	-1.3529417939709873	-1
0.8796188191365459	-1.5885558226091865	-1.505412986418376	-1
-0.9891668712079407	0.5464886128129737	2.423326297085041	1
0.12352038954690635	0.5208913139265186	-2.769745943439071	-1
-1.213063787578181	-1.4717426689980575	1.6200462679331693	1
0.06144238259473409	0.17184848537320463	-0.1295220930659292	-1
-0.06749003757246146	-0.011451713114594014	-0.33500437095487556	-1
1.1482908082900947	0.02736772085984431	-2.5649856255332457	-1
-0.7094360566841025	0.2462955057444649	-2.4810344140506584	-1
-0.40128220602995396	-0.11257341617289514	-1.9384007906840865	-1
0.19643191182460334	2.298791439366896	1.333853546372553	1
-1.935222056682758	1.061485630079044	2.2235005715130423	1
0.3634488597951577	2.6657476046815045	0.521705057350185	1
1.155639308515907	1.986339694553391	1.354048866365914	1
-2.0036471087033583	-0.44424677717281685	1.636415878158269	1
2.373590867581862	2.4710675363388908	-2.008584704729207	-1
1.6507441424817522	-0.6228547100837712	1.93040664723987	1
-1.988459229415074	0.497303957169726	-1.7244480975930614	-1
-1.2839120489554583	0.39829191284180254	-2.1241894180908476	-1
0.02563891677774271	0.2617954175135511	0.8420880191234854	-1
-2.0649719729940936	2.458329218704638	1.9782999901205132	1
-0.7904843468118219	-2.2992497410238086	2.036079220224397	1
-0.892099790699869	2.0780397876504533	-2.9559694440583026	-1
0.7209268764901685	1.1587312586158562	2.80885693012228	1
2.1099827189323723	-2.5805952375018646	-1.3431691900425493	-1
0.2530516642274866	-0.021139235718233722	-2.1347989671858936	-1
-0.6746632428729753	-0.8450205374893932	-2.0616694799793023	-1
2.5034119367226983	-0.5123394099619345	1.5899803932382266	1
1.2003896431082008	-1.092894117662805	-0.9074854089785678	-1
-0.8076807488921554	0.6376087417163566	2.147240697515954	1
0.19992278235301492	0.39924837876255315	-0.6273159264355276	1
1.0552112965275604	0.33980503862177747	0.48776257257552164	-1
-0.13874484672947582	-0.1164386538053021	2.07470852632996	1
2.88531603795761	0.10164912342681394	2.8632385604559496	1
0.024563971226880144	0.05327750747494297	0.33350968158315486	1
-1.5401396518532995	-0.5010749429681596	-2.252698744112255	-1
0.032599667174728474	0.1965986899295625	-0.2990780939973922	-1
-0.34286336941123463	-2.0366362284866257	-1.9239856349017623	-1
-0.19070610340977068	0.017904576023105013	0.3003821255819562	1
0.30335762152032225	2.355550483275355	-1.8183897865397616	-1
-0.14907490938976017	1.262580679994442	-1.8430692979707484	-1
-1.4220732815751638	0.6701413808624443	1.8999978919231222	1
-1.6263581046587303	0.24784202206732742	3.54024811158562	1
1.4874293669804768	0.8977398757957723	0.6914871950181949	1
-0.3963763806787608	0.8882552981068289	2.300291275741628	1
-1.4193149931941136	-0.14529595941973786	2.3640119850010537	1
-1.246892774217517	1.7647045943023105	2.086683716187046	1
0.5596139825415783	1.347744130194794	2.1388304919223224	1
0.590431633877479	0.520043885975914	-1.6896810448349038	-1
0.05168196085748376	1.4181266841709572	3.332650357239384	1
-1.8727982400447578	-0.321751060922594	-1.0605472797954583	-1
-1.3606224993618796	0.17200114708129755	1.7358183952967625	1
1.1153863183711692	-0.6196728550410454	1.671832112202434	1
-0.12125967118216502	-1.473822548214597	-1.8667873640018753	-1
0.5038909526317844	1.937826003603573	-1.3226806699071691	-1
-1.0208295847929907	-0.48406515569944075	-2.1091246333268003	-1
0.07588225417955452	0.643372077426865	-0.78817253627692	1
0.8248368371036039	0.0576550467276878	2.8145650944319343	1
1.6153578735695455	-0.48937390500022354	2.0065669995596025	1
-1.642678764785317	1.3064832542953988	1.7284085491394017	1
0.22345766838843148	0.37913795615474216	-0.5623148638228979	1
1.2033572283516651	-0.5016969628180495	2.3416424358893417	1
-0.37081675281502924	-1.0194897837916672	-2.351943755167875	-1
-0.11555983843151385	0.2699371607932664	0.9083293520534634	-1
-1.7918143138803764	1.6610559616490388	-0.482322124628268	-1
-0.10059333178317259	1.3842289928311464	0.8428457397509366	1
-0.5939354991136884	0.4153346205664056	-2.0010439300524987	-1
0.7486075081930103	-1.9234011787927159	-1.2883995150737277	-1
0.27747110100712286	0.057162164383931124	-1.1766444553347675	1
-0.4715563886140906	0.9722901860520076	-1.7713277069602889	-1
1.3112125783794142	0.11292078339187878	-1.3656165427292173	-1
0.014655372586009125	0.9979765083481813	2.4669655193551625	1
-0.896086776446259	0.979482047701305	2.7437278260891738	1
1.9651569539739056	-0.07932232652714105	3.2843484999780914	1
-1.4460103795482135	1.4426989608333394	1.7429762371461266	1
1.8059851545701422	-0.4336933075192838	1.2828153290091848	1
0.5993289915759346	-0.6415328038998067	-2.5494578947817246	-1
-0.7208937209184141	0.8208998728625194	2.317792841480251	1
-0.7346569607373951	-1.4256971428692444	-1.7042719230980365	-1
-0.017377878027567416	-0.5534721004306894	-2.6376167969861455	-1
0.6486894566965655	0.6232199879601091	2.381158825110064	1
-0.5428800836391173	-2.0359669611151214	1.4273444531832178	1
-0.14608015261323684	2.440134782272481	-1.3253473773814468	-1
0.04063166059000406	0.0015498459220876445	0.07629174686608495	1
-0.1347713808685614	0.8103314908486091	-2.0682881897373355	-1
-1.3307297060245729	1.757820286176954	-2.8507746031350325	-1
0.10952986176567857	0.4330307530182405	0.9501886730892233	-1
-1.0040901006256655	-1.0628179050858007	2.68151788597667	1
-0.11307447736289314	-0.11883948749461769	-1.9727523986344797	-1
-0.9410258222482182	0.7329300523916471	2.4374727666147153	1
-0.006376859862305405	0.4397055966822869	-1.6027756745356765	-1
0.24626623812077308	-2.614436479375973	1.1316502780986017	1
0.23349294817702027	-1.1392377831232026	1.3630729224810185	1
0.8964985698165417	-2.467844083982626	0.835412813603062	1
1.5076811308627092	2.0868837276217564	1.0573182893216522	1
-1.7467935729471944	0.7934947276042463	2.1531110700185456	1
1.6770281967234795	-1.2877735876751568	0.31066488979653367	1
1.5758691419578819	-0.41437115263582847	0.4029817140210712	1
-0.1202009408797498	-0.5805346085722786	-1.6746162627363241	-1
0.2664869832956102	1.6420891347690014	1.3318118876941276	1
-1.433380682471198	-0.013329439625670176	-1.8167054395220472	-1
1.4679352350126151	1.2403266532824015	1.5667926665597358	1
-0.854042061656979	-0.4573062882636923	-0.41851441648794063	1
1.4059474606668294	-1.5925946921061618	-2.388251803149346	-1
-0.21978813572607067	0.9687425333289174	2.303182652210355	1
-2.8251590587611433	-1.0556447396578597	-0.45564721484660664	-1
0.48224521475475557	0.29104459270344013	-0.7948686038051731	1
-0.4780580580313298	0.03335200887287402	1.0448088824907504	-1
-0.7741335319598324	-0.7243622113399928	-2.6493836983252845	-1
0.21699706793540413	2.227592798231657	-2.0575681947413527	-1
0.6283159040548065	-0.22616247864369507	1.5425867930790482	1
0.08771041461892774	1.2260198862750817	-2.1034252557163207	-1
0.03140842439190894	1.059457720344741	2.484108401029229	1
0.4120661689075423	-0.5896940251530135	-2.0388482038704665	-1
1.5966606283944316	0.2632160123087304	1.5681416640085386	1
-2.1794934760251845	0.304713903297599	-2.298441038320591	-1
0.08874880549166717	-0.9407423026921228	-2.8643107511534054	-1
0.5810570578794311	0.6600954678046627	-0.14744859257653228	1
-0.5737946517390692	0.5974202246519961	-0.6716293232496118	1
-0.45542771727504183	-1.798768163392781	2.7015731737489914	1
-0.06927375674623663	-0.3139247584090893	0.7982266529868813	-1
-0.5696373343595944	0.947126037548523	-2.1755444437017597	-1
-0.42321966690434326	-0.8187605692866449	-1.9144946054395158	-1
0.7256213973613802	0.754782966717229	2.6796240353219183	1
0.6631054239813191	0.9311100754518057	-2.371249225613494	-1
-0.4616825053932426	0.1546292209855901	-2.2462017225155964	-1
-0.2265177511961964	-0.9002177855068907	-2.770678002333397	-1
2.242610408772763	0.6888808738345773	-0.8048901374248717	-1
-1.0593916992089214	1.7689750910063982	1.327906520799898	1
0.6626428554400509	0.17793686597575606	2.233730111832522	1
-1.5759667793102603	1.9756809397143222	1.5868982148829174	1
-0.6966058361723209	2.861196344578823	1.275823951752554	1
0.7031395046811709	-1.5247825180650287	-0.9819803789222992	-1
-0.34097621636803727	0.00925960250755191	-0.1290298466336222	-1
-1.1219907940185385	0.7524905537002905	1.4487647761796774	1
1.0955581095495777	-2.094962973558073	-2.32120697067698	-1
1.4328345602748125	-1.3681058959909478	0.4366174915297493	1
-0.8937493765192883	-0.7776258083411133	2.5935527623124037	1
-0.9083296374126025	-0.40890128324282654	0.40842886163807884	-1
0.224942561869696	-0.9018743339498523	-0.7178931715773706	1
0.6551763718253576	0.5610136125218949	1.819488569289141	1
-0.8896401618788735	1.0756526201494103	2.238794217041896	1
-0.9337803826682468	2.079185095632304	1.5576581596139263	1
1.1751562945838911	-0.6961459470125949	-1.8891888217058188	-1
0.13247821073017785	0.16654188760806807	-2.1247383610712993	-1
-1.8821176081416842	-0.6582012792820439	-1.2255161830128984	-1
1.4365138606178878	2.6667942985687016	1.864872132643204	1
-0.5873073327506501	-0.5019550811280408	-2.861218083852594	-1
-0.5331151834367388	-1.271540883999086	1.678113373894301	1
-0.5019535120702437	0.6961957002511019	-0.517139038872026	1
0.5598164862051368	-0.17910219270587888	-0.8206169787350058	1
0.46570709384213144	0.03095300651561089	1.0561765370770724	-1
0.9525029526032252	-0.7154300480124871	-2.037994521011418	-1
1.0561547661038275	-0.02269945434274774	-2.8980709613227673	-1
1.500766642303399	0.7991883816798577	-2.8459537885729222	-1
0.8787034458293012	-0.13830351865341747	2.039977430696663	1
2.259823983124938	0.6754781840175984	1.3438110116351905	1
-0.04457524942921805	-0.057591022710092345	-0.12869338443532177	-1
2.6872419398176506	0.3978175764351911	1.4750897187644427	1
1.1034899197549553	-2.6498722668238948	1.6245984965523927	1
-0.577806117210057	0.5941312766150211	-1.5122389927776052	-1
-1.7794933647124012	0.39974268064717267	4.156107308522186	1
-0.05350121753812368	-1.0242175039121262	1.819927220380082	1
-0.39850169108975025	-0.5236218494232774	2.447988032483421	1
-1.4134899440635176	0.3799835680843391	-1.4309245655063405	-1
-1.6633745449792212	-1.1813878062958998	-1.029111836010691	-1
0.4586272698177954	-0.0665328291838574	1.8033819249033713	1
0.227237170349922	-0.9365562642750938	-1.9720057356399203	-1
-1.4539649439039248	0.1676802261810557	-2.4052680484759197	-1
0.8082904526420933	0.27936193696443445	2.303507348453954	1
0.20702583458078078	-1.8232451488897867	1.2659354286793265	1
-1.583012312601752	-0.663712232114621	1.834305467658232	1
2.2644365456074373	-0.11698990255392011	2.793323273758967	1
0.6326516589518143	-1.0822062647967785	1.1604804235378992	1
0.46213059227175696	1.1448871380493741	-1.6575249318588672	-1
1.0102303173242115	-1.3086702942737312	2.058419359716329	1
-0.5404800819292914	0.9810020515542409	0.31941278422003166	-1
0.09129563034779109	0.2563085531359748	-2.561961073665344	-1
-0.8512497213488894	-2.6824823886435034	-2.6440449536512403	-1
3.2678628443585875	0.9597716730553421	-2.6017389956638493	-1
0.43218317692447505	0.7906396603339684	-0.7634932943778355	1
-0.6738618767228158	1.4340670651842644	1.9647831700338796	1
0.673410426092042	-0.01064391824892038	0.6197252506347688	-1
0.5857744331036621	0.07961674010708042	-1.4633255161534982	-1
-1.1558973559284007	0.8740045800188103	1.5237878655006016	1
-0.9054521948087288	0.5231919326455081	-2.0886212286187247	-1
0.6757522422881048	-2.9875120057926967	-1.6220602804817137	-1
-1.3393881554597087	0.3321653463367107	-2.2172776825219325	-1
-0.3225230325305387	-0.14306251828632766	-3.482174243203245	-1
1.2452531464184224	-1.1847752530137916	2.4768554993695293	1
-1.0004824825073053	-1.4311942600887146	1.5783768207383244	1
-2.2117150809518273	1.1132076155877413	-0.8218767411748717	-1
1.1541222741202017	1.5758474096377735	-1.8592307790495284	-1
0.9177750050340236	1.9939836075093602	2.551471659525455	1
1.0965630864075189	0.0824762974759872	1.6480255983897008	1
-1.0332642600709723	1.353736551309236	1.9982879176401571	1
-0.7041372026419427	-1.7746949046867073	1.0755102861259926	1
-0.16563606097379496	2.62058443669845	1.981379427059348	1
1.3305279350417198	0.6409567440603882	-2.2102705924945085	-1
-0.15255338565346993	-0.8572681606278478	1.6403573337151376	1
-1.8883284449398137	3.4807299892956225	2.7763697993786476	1
1.212881561018735	0.44431311238019106	-2.0124599442265514	-1
0.6581288610126796	-1.8608808416162412	-1.9411173898787994	-1
0.11168668211358129	0.6242448552360393	1.7644512465528768	1
0.6700851038303717	-0.4657466154568217	0.821349611726077	-1
0.1310390773072857	-0.06856680295505166	0.18012059431006378	1
1.2800638462701537	-2.0332059976043566	1.3720989531184056	1
0.4861700578460571	-0.3770215554927696	-1.0993724171603325	1
-0.12272701079796583	0.09188091492138126	0.14887250099125302	1
0.6863931443883349	0.6816063213950496	-1.9337627290700174	-1
1.3067951251996224	-1.6923696043427296	-2.1986439662485764	-1
0.1586563253044052	0.8914904992448514	2.8603984648329193	1
-1.2791929261294395	-1.0737232887255395	-1.4325711471837224	-1
0.1881602310082958	0.5044586543062186	-2.4530726928445823	-1
-0.29499748210930543	-0.1749726512805524	0.8076095903417463	-1
-0.22209892664396835	-0.16676345958744843	0.22299879110354542	1
-2.4230149887809214	-1.3228821013912224	-3.0625259592206233	-1
0.8323935692536981	1.180914917155081	1.2241490044526075	1
-0.20673354573735014	0.021165663823978977	0.9533334797068082	-1
-0.2957968006633362	1.0708859869055678	1.8389599484916368	1
-0.6737570042627136	2.106957270325601	0.9757522976685723	1
-0.004968997464097287	0.21114900637133216	-0.2820314278133617	-1
-0.6909316791218609	-1.820987432113065	-1.5245608167491747	-1
0.13350355849705953	-1.7514743477013768	1.5249986260807784	1
0.5425865715000373	1.2745415868630825	-2.25391009338588	-1
-0.5189316629425845	0.0008060813550239882	-2.8203831209395425	-1
1.0132487684156934	1.0474216644339005	3.2912665683793927	1
-1.5860547491569892	-0.9280109543865014	-1.3590357927332608	-1
0.15257099773529756	-0.38478167033178634	-1.5743264883488854	-1
0.06737947847898827	-2.3937648101915054	0.6823278170628151	1
-1.6379402592703514	0.5154424939279715	1.4642452946871813	1
-0.36491247073024036	-1.725854695433299	2.492983343638958	1
0.03187798834110044	3.1718182883693817	-2.282035768501082	-1
1.015774801981557	-1.6828887538630946	-1.6683152876475043	-1
0.517863489138595	-0.7793978666118884	-1.5232750284161658	-1
-1.0382168743327875	-0.7283721029013188	-2.100436344367605	-1
1.7484374542449161	0.779552454700672	1.2126426186734482	1
0.02222083773672442	1.1568703664604223	1.8738863380888358	1
1.3291512513570694	0.5063307748167561	-2.082322814805978	-1
0.46531386924596685	-0.39200844419182046	-0.9923888736073696	1
-0.48095170593916214	1.488721338920345	-2.3314605165403846	-1
-0.24735920992009164	1.5198361755174603	0.609127390582838	1
0.5219845091438138	-0.11230158488152862	-1.1965251557597174	1
0.896571677005907	0.1594002652005313	-2.6654795087784073	-1
-1.137282884309601	2.11962930422487	-1.1071897846573482	-1
-1.681650870506572	0.14409531670328105	0.745528135094641	1
0.7843813445691057	-0.8602986408013957	1.3844031328366349	1
-1.8822443873919963	1.219364694221898	1.8870132569537295	1
0.6110152364470256	-2.239626920304589	1.0600776581780418	1
-0.4483163678470378	0.3722277871681394	1.5763085532942245	1
-0.9161197457970888	-0.5959447811621258	-1.8470362154830609	-1
-0.3184173881914121	-0.1320219719441151	0.8711168321737598	-1
-0.6639847590355823	-0.6245034547323811	2.6371190616397615	1
1.022338257750519	-0.04143208344709372	-3.523033199187666	-1
0.40869713339377106	0.7568549205754681	-2.046366859803045	-1
0.3969332045264797	1.995955619804464	-1.7450751109556695	-1
0.40398621586471944	-1.1962832597257196	-2.1171252989597122	-1
0.8610571366306046	0.13463355348410777	2.8241440738337515	1
-1.4314330334715144	-0.31328759923833815	2.5163418384462886	1
-2.2359821040445866	-3.2462401977706143	-1.495588342372909	-1
-0.6655073132355461	0.1238804874913022	-2.4779500373056447	-1
0.25890457990415516	-2.921059844046489	-1.0679746291184784	-1
0.4814517120157209	1.3931925751222962	-1.8087178897459855	-1
-0.6055550160826529	0.615334970973584	-0.7404149942063659	1
0.3719072326914098	1.7273944783664348	2.8642042980223317	1
1.2862788890574497	0.9069737529498507	-1.5022766001916519	-1
-0.577135518266218	0.6115871994684288	2.3497673855291215	1
-0.35196543800319374	0.10081593574392356	0.5836979218274959	-1
0.7988992588605434	-0.46265516180751365	-0.26903308325018427	1
0.4421048749721737	-1.9288233344454317	-0.8702260731858532	-1
0.2395736541520591	0.30677537456347936	1.8320693967614976	1
0.18556410925431255	1.4308377133156776	-1.3653099757609513	-1
-0.4685460893107489	0.14400424545064086	-0.7485567687978835	1
0.43127739560799844	-0.31578353805824655	-3.530789783588796	-1
-2.304139753256421	1.2595565394701458	1.9768917864763864	1
0.0694651331014948	0.629339862934283	-2.264888388207302	-1
-0.1152204461615489	2.4402927762603874	0.8328366481637492	1
1.4817601067586974	-0.04330495369149806	1.7700968758529418	1
1.6271571195524197	-1.9119843823604263	-1.6090272330531012	-1
0.44140775780424346	0.3331756925434828	-1.7468510470760668	-1
-0.30222350998805386	-0.02454967788237368	0.204410355792428	1
0.6311020868122458	1.7796953446558021	-1.475724244672291	-1
0.5647011154821421	2.328358245712983	-1.1484021280053147	-1
0.07126676181815558	-0.047500468194912424	0.2530985823452502	1
0.980189902750519	-2.142528095152337	-1.2933630330025725	-1
1.9507978456745303	0.40987232857250727	-1.72687143845457	-1
0.18811602287191076	-1.2369001126812373	-2.318510328841677	-1
0.48686139482768304	-0.8757501935805405	2.7138480751331158	1
0.003993451943785058	-0.2977550612952076	2.1288170861911553	1
-0.6635222776576251	-0.1373293637618249	0.9276236333141384	-1
-0.3132777322185587	-0.7090225426536854	2.2744614839892168	1
-0.46469521526208607	0.6630348614229639	-2.2945878485846363	-1
-2.17227619753981	-0.21788642161925564	1.1719743706254986	1
0.69049550969098	-0.23814257873976935	-2.0588108760079584	-1
0.017700352881337218	2.1783040654422097	-1.6961870388044955	-1
0.19248697959709385	-1.123125568987496	1.4120906697743132	1
0.20482124691753018	-0.20613830062152722	-0.7948991956032887	1
0.46071604672884536	-0.7948133109390142	2.178201952638563	1
1.4049494168111625	1.619992598749419	-2.0359854666152546	-1
0.2529529765365502	1.6723436680675634	2.6226761126680103	1
-0.6559012602224507	1.2942253657665386	-2.8098205877324025	-1
2.118939931144838	1.4198995101968652	-2.1575921753540666	-1
1.407794392236337	0.9273926316002451	1.869116736931285	1
1.488816310448101	-1.469298678006046	0.7479265488980692	1
-2.3502847674830534	-0.15379488625086363	1.758376857662179	1
0.021738719418597372	-1.7816632671500834	-1.8341123076353263	-1
0.36613158630647913	0.9091838135361912	1.9871750221144535	1
-0.0564356493456378	-0.3569490507764655	0.9829270061213498	-1
-0.37677431284621854	0.553048790553574	0.9253949469475332	-1
0.4394180646708458	-0.19678169830477502	0.9112695154761271	-1
-0.868300830364834	-1.1770580507449562	1.8440155217642868	1
1.4961416610312614	-0.9364652752000039	2.6475010312087384	1
-1.3406554126078827	-0.7657370255399721	-1.9948390455697211	-1
-1.2667557265658134	-0.34317804900466375	-1.7796686252328595	-1
-0.31208866921721495	2.2286458994070824	-1.2741349980207897	-1
-1.4987674707455974	-1.2912579528525596	0.612535835462964	1
1.3818932050501003	0.4743395049068717	2.219471344396846	1
1.4655444102499906	0.10871092407178673	-2.366052153774738	-1
0.09956874267035387	-1.840580960490274	-1.4470973972782233	-1
0.08789304809767295	0.7067019764101906	-2.16884813319817	-1
0.7593149586947064	1.4171396117987314	-1.322725339847847	-1
-1.0204301004583467	-0.04134358415252628	1.970992883039154	1
-0.40364396160937716	0.3980600473430771	-1.843184529388676	-1
-0.7003460273644047	1.906489468083607	1.7543934824251293	1
1.0960021852685593	1.2090935712927495	1.316940184563216	1
0.36490159564149166	0.01804481188445471	-0.9593297601223446	1
-0.09660675652963696	-0.922404058115458	1.4450565776297544	1
0.5188620486758283	-0.6221507564329869	3.339989012300671	1
1.5013371982213977	-0.22723304792466603	1.1932938313061128	1
0.40831171229899976	-1.297574135193248	2.456487180596513	1
-0.07965295292588015	0.15669425589005181	-0.3188763052588849	-1
0.5535473129408106	-0.18816628496938922	-0.6477713703777895	1
0.1910059944719441	-0.24067964080213736	0.834448283754157	-1
-1.2387029050064378	-1.3684048999436165	-1.5334630968955554	-1
2.313909177247561	-1.3342379369599469	1.3720376546650235	1
0.7109092710174473	0.041597384307944595	0.5119907155507909	-1
-1.117957643581003	1.3904674981074012	-1.5938215406513898	-1
-0.24579739390284067	0.5321428559892727	2.171413008920096	1
0.5930070410899058	0.845926748201288	2.2825751920118296	1
-0.699758944521892	1.4964145116883325	-0.9007844324923107	-1
-0.0019278692979789122	0.2318803354836129	0.26585428928653937	1
-1.3094538805872984	-1.26858747727111	-0.8224060937267391	-1
-0.8648874674391275	-1.1198591048350062	2.2385331475861956	1
1.2555677647967147	-0.6070302234462603	2.1325584576541723	1
-0.8385728686523699	0.29800851605189976	-2.195141739239899	-1
1.1460879501534047	-1.8625897597776246	-1.208508638305131	-1
0.5043713025990343	2.53484584469566	-1.2867955379921137	-1
-1.1069182445289234	1.6174863886229318	2.521871526785655	1
-0.029016303714054444	0.3486503352487669	-0.5956747998890322	1
-0.7326655933948906	0.5074312981262787	-1.707711784585306	-1
0.22361775977154288	-0.3426317235282469	-2.1319073559132464	-1
0.7411137800938614	-2.028456101271814	0.740969059428095	1
1.9812153867104645	0.29958687033757114	1.7860604061443586	1
0.6170602320138578	-3.012032071146646	-1.2205451076224174	-1
0.31498629089100927	0.30519929520160927	-2.1065330466152585	-1
0.9611347015525438	0.5189312904474527	1.8467969676981064	1
0.19345525556032828	-0.3407659696730484	-2.4117196598578046	-1
0.012327029289749962	-0.2042210465591067	0.7890780857125408	-1
-0.6094141248692981	0.4200521920678261	2.8885507424837185	1
1.7645219280415725	-1.0707234164978885	-1.1020920665257339	-1
-0.528389662312735	-0.5551866887214055	1.8605588586129198	1
-1.7464187358720047	-0.080290102733927	1.3547908598863234	1
1.2698898197456314	1.6986017211743214	1.0937360605772761	1
-0.09145686495684398	-0.021306375140300926	0.12540690951567982	1
-1.4596523972835835	0.8057058622495428	1.2640957432584565	1
-1.4521336768626174	0.7142741882707998	1.2949093772516589	1
-0.6633681003092833	-0.6268671818902971	2.9899686479386305	1
-0.7186906563660551	-1.3806229355472308	2.5619651108449073	1
-0.12346394945498614	2.376479423618893	-1.8471155683096143	-1
-0.4618351771609497	-1.2429811880825796	-3.178940583252354	-1
1.044062705579084	1.7713145436518003	-1.2619643132411238	-1
-0.46179037681804325	-1.0349094063009558	1.7223974122409857	1
-0.7072264242118464	-1.7930073556332076	1.692800231375647	1
0.861256303136333	-0.997988941990186	-1.2259230315166534	-1
-0.6682013434940575	0.6962512079645653	-2.6708671563829594	-1
-0.7015960184396841	-0.4918438492158059	-2.583591130326263	-1
-1.1751297301758754	-0.22333391817014228	1.7066726125884604	1
0.7691979398162299	-0.1462466506212183	0.7697497532792758	-1
0.5626272239699673	-1.458830604880328	-2.880788121478438	-1
-1.6045592495073642	-0.7825905476350314	-1.6377652699357501	-1
0.6964090566922646	0.14857381167673334	-0.7923765803372508	1
0.5157663873911847	0.1500927803627098	-2.3456037455011596	-1
-0.9647998470132944	1.2689309617600457	-2.0587917199865635	-1
-0.3708541020377572	-1.3647923600389338	-1.7659563177168085	-1
1.0729944837483385	-0.5274992908792431	-1.4700425027455986	-1
0.5035269632134278	0.01776272257195063	-0.713883547310564	1
0.20202817618973246	0.5671468571785501	-2.8873371632794154	-1
2.4917449999242223	0.7893188318420891	-1.8534849765558168	-1
0.25490084254670026	-2.156573254157836	0.670805123105446	1
1.0591250520221942	0.8113401332269992	1.4146220768377356	1
-1.3804573359452448	-0.42258320796005266	3.291490938486685	1
-2.1959569085159636	1.081099079938165	-1.5510698682222044	-1
0.48273824035823226	1.8921075780261987	-1.348135002158271	-1
0.0008060773853875417	-0.14716905905885325	0.26207723737816496	1
0.8114683081926348	-0.03141515331833769	-1.4535835300556565	-1
-1.3945435658318113	-0.7811527320349502	0.9926892927690972	1
-1.597808500746205	1.4187709452593777	2.721508253057484	1
-1.3687281934549822	-1.994498140151324	-2.599747492445553	-1
0.35974461954973663	1.5682561896583909	-2.611083380990706	-1
1.8305346067700317	-1.0985404560306813	-2.334086866982886	-1
-1.2153340173520322	-0.7216533106433571	1.9471702962347797	1
-0.03124394520787372	0.059279159509195545	-0.0650078487209875	-1
-1.5689555005408842	-1.9878654910511853	-1.6031647889084235	-1
-1.4357822026669862	-0.542596986295106	-2.520090510645212	-1
2.1544171340854565	0.17177433606946	4.4666202932691155	1
-0.962093010823486	1.241628589739259	1.3369598855343412	1
-1.0193382412293561	0.6641417616237939	-1.703828450681403	-1
-0.5388824131296536	1.1682678863494382	1.4235367759794908	1
1.177102659653724	-0.45152598692979407	2.525096511629778	1
-0.5865172299984861	-1.152366486708402	2.7507738481935435	1
0.13139392369046857	1.2935658825773597	-3.264575776041408	-1
0.44632182540565213	0.18440924881685009	-2.2379510448084194	-1
-0.7327052825369588	0.700782820261176	-0.26103734851606936	1
0.6915936157346475	-0.738525172382352	1.9699216856111201	1
0.8779314778085049	1.6936858947955156	2.081410816012649	1
-1.408369936702748	-0.7412472866636559	-2.2807584934509637	-1
-0.5321111721631883	1.428188482830575	-2.2534267004758024	-1
-0.21921044402820422	1.2453230126616184	-4.443399748294665	-1
-0.6361212084551069	0.1584974777922346	0.747787098412643	-1
-1.2277574713734563	2.1852889144341368	-1.1188207983144962	-1
0.0661828434877708	-0.8729107849028641	2.85750213068325	1
-0.6866416436035477	-0.036915540756430824	2.082491162066004	1
-0.4149429616118628	-0.17255573050319128	3.6565503729101234	1
-0.013535442637691658	1.2604447286428293	-1.202752743653605	-1
-1.3214992826195364	-1.3171118400147641	1.5327817408321411	1
-0.37905699386103403	-2.3170153785487817	-1.906169211829007	-1
1.641365956118415	-0.16920478966177369	1.7266211317135387	1
-0.629083882104617	0.4859900771788942	1.7897576223224654	1
-0.33667926539357795	-0.323475421448934	-0.8304475550931625	1
-1.7886358973697973	-0.5980780051212202	3.066668775815005	1
1.6286050427558583	1.2982961415776808	1.6162435332960563	1
-0.42838796242622545	0.44220174935469236	0.780717428540014	-1
0.4888177156330185	0.8992366381176815	2.3740704239754336	1
-0.08404503737689806	0.004652349532276345	-0.09008455849161391	-1
-1.9105356742858426	-0.21477567938900038	-1.5098953090112355	-1
-0.833432785634223	2.512311734111782	-2.6997237394574327	-1
2.861595122956413	-1.953663963426799	1.9516662827522904	1
-0.09337763613793541	-0.2433702832703323	-0.23561649158017214	-1
0.9326998961837237	0.9155856314604306	2.4949371230402613	1
-0.08003519490268172	1.7232459802296622	1.0230352853071636	1
1.651840005973007	-0.3475796476910472	1.5352493703008399	1
-0.19095341623942852	-0.09243637783074359	0.5608996972311243	-1
0.16675044796465252	0.6084046592899455	2.1466013870690666	1
-2.5949778178471683	-0.7062818764276751	-0.188379973321789	-1
-0.7579296840249312	-0.029503594270801348	-2.293756175624799	-1
1.1570896358548415	-1.0831462365565188	-1.0011252020126635	-1
-1.8295549588367521	0.12459647495337167	1.8805790572610683	1
-0.39974477421813376	-1.0476093150922188	-1.9804780967302567	-1
-0.025717372622286835	-0.4824661563364928	1.944981591166651	1
1.1088272403066908	-2.397255266772478	-0.712630036373633	-1
-0.7926412203249172	1.4481726717607275	-1.3795677575032403	-1
0.27498711118166685	-0.9004759014999966	3.158328581821918	1
0.8055519383156358	-1.5517154483740807	-2.062491223429928	-1
-0.28698238815881094	-0.5410329246021001	2.5127260925033563	1
-0.2894212807138673	1.3150971657789823	1.361587788655271	1
-0.5560028140134962	-0.9638468354522456	2.0086819042039195	1
0.785716926222845	1.554259847606004	-1.5330802111871942	-1
-0.2510658999026838	0.8532325951168889	-0.9929932911577851	1
0.5963595655298103	-0.4709434574344218	1.6047267229610065	1
-1.5538121937419884	-0.36945604417400013	-1.7402916813197309	-1
0.07674561296501631	-1.4547568895766432	-1.5514668190877206	-1
-0.649641851445967	1.4885608221888296	-2.5487766309946687	-1
0.6853544004263772	-1.3515774749864984	2.8437506060877986	1
1.4951840555614213	-0.5938098216462648	-1.1627924601548718	-1
1.1845465913676314	1.1953078253860612	-2.009540405386614	-1
-1.8957584724291463	0.9195133295956209	-1.0605659796300608	-1
0.5654335887507641	-0.4361108431798652	-3.523292575987485	-1
-0.16013231232366432	-0.8717789093952318	-0.5198203107960231	1
-1.1579735336454504	1.3667743285802145	2.4153830625258315	1
-2.6621080388606972	-0.08812774956079861	1.4080090393346096	1
-1.853879569953746	-0.2714151095459761	2.2529283820626316	1
0.12599934723132908	-0.43251422067990364	0.650216052973274	-1
-1.09348158087924	-0.14173788987153244	1.9626474581340112	1
0.24945128683305434	2.0368140193405693	-1.718782682267634	-1
-0.5526306528070499	0.7443652501378836	-1.6737361675152405	-1
-2.6041270525822107	0.5705227548322227	1.4933173142879914	1
1.846930241768126	1.2366645525789124	-1.0366652201881579	-1
0.5432283854861851	0.005801064990276567	1.9812767284338773	1
0.03751589362478348	-1.7651511156030386	0.7275403778515375	1
0.4322817338333036	0.052294586927992694	1.7586456155870516	1
1.2761535665304125	-0.47007048893833736	3.3334075732180346	1
0.707670483554647	0.17856988950324595	0.4640418858292916	-1
-0.3937297780266002	0.3583195017655772	0.7707906992092539	-1
-2.571653593911902	-0.14520775277233364	1.3496132666724698	1
0.6102420088517312	-1.1472950105660316	-1.2947856428526938	-1
0.2695756499984101	-0.35551225192262653	-0.9392634715140575	1
-1.628489577518799	-1.0375893375233978	1.1183762928855872	1
0.4749051939036886	1.7210627595792822	0.598119679760813	1
-0.9459693006278359	0.16682554726510854	-1.8280638110762426	-1
-1.1604960419085668	-1.3842459117885628	2.834629528852239	1
-1.238828095456145	0.742405411463865	1.273617362335316	1
-0.7492624902166662	-0.49895221878802404	-0.7483751751060269	1
1.4381789905385736	-0.7612669382676183	1.2153010702627405	1
1.3807547517657026	0.42022267580925005	-0.9576792319064629	-1
-1.916386851186891	-1.4010168904793459	0.7561907489077537	1
0.48110848262036887	1.3400708314870229	-1.6448647439879889	-1
1.322375942940277	-1.2685135050159486	-1.7553115584633934	-1
-2.389667886940218	0.3585982122146699	-1.4245084229922405	-1
0.6551438456080592	-0.0625825214056479	-1.0017514092037982	1
-0.04797330359162804	-0.3179086299848151	-3.2442271755011363	-1
0.5700752539190227	-0.34414448965697386	2.1126315512423806	1
-0.010104763372311424	0.43559357805903764	-0.14730548538866628	-1
0.7674561648214674	1.1317740690800746	-1.5242622751856243	-1
0.4382948312317483	1.0535863484328105	-2.0017579756349564	-1
0.3186661082490712	-0.6888375781787519	0.7803183535782128	-1
-0.9285854433400886	0.17683947944500472	1.6831566245960774	1
-0.07802908687637239	-0.14818781152726998	0.1543288679770584	1
0.030165002719947705	0.307599170135352	-0.8855685856422909	1
-0.0874840134101707	-0.9091742177620669	2.1539582029343953	1
-0.11391667923935556	-0.6552702285795413	2.2156327134989646	1
-0.2226870197226591	0.5480123084303491	-1.782872256687464	-1
-0.7282290512339084	1.0624001433834636	-1.9428324879787056	-1
-0.032856474777808856	-0.23617084677247413	-0.24352297760672617	-1
0.11165755312950859	-0.20112143665846716	0.8321628795059081	-1
-0.6012031344502226	-0.2657027217836118	-0.3764323540648929	1
-0.5410191041036837	0.3609476402202364	-2.4383320731287497	-1
-0.24890520787728307	0.322221384117375	0.24966764947472067	1
0.9113689426413416	0.17232950799067703	-2.8423688513734193	-1
0.5756937136381496	0.5277516561823701	2.435856602385695	1
1.6059906349586008	-0.7452024316673747	2.5258834642634453	1
-1.4758363980895017	-0.8744081919009109	-1.7163034135065172	-1
2.1915409376973445	-1.7544309851705226	-2.280502196019362	-1
-0.5563443768839179	-0.01965932327190851	-0.8382557112100658	1
-0.7855581949486558	0.28480533340445685	1.8223218813192663	1
1.5187672083267316	-1.5814933216692297	-0.3892313030066617	-1
-2.13871284597298	0.29739591587759245	-1.1398938667271652	-1
-0.8775299168968296	0.6130305730898633	-1.9222809695446987	-1
-0.9855992738843109	1.291759746317127	-1.121916378362634	-1
1.811207459041809	-0.33019639406804224	-1.1515629902828517	-1
1.1348261742339376	0.2054464262154504	0.6865223356894685	-1
0.7621654514844194	-0.3828910011415078	2.552936787826004	1
0.5066594860211858	0.5607611972359613	3.0074346452817213	1
1.3088408216275997	-0.8631782532400054	-0.9280071504887953	-1
0.1867848387132378	-1.7311689964172476	-1.8688033005606794	-1
-0.004719796614379487	-0.36861556152202307	2.0332396556722814	1
0.973605470600626	-0.9867120761385766	-1.192411148162404	-1
2.0953977099960523	0.5971001592030217	-1.153853038662401	-1
0.6670875746922414	-2.87715844805291	-1.437245850842378	-1
0.8971106620173354	-1.431874427069904	0.1951668250157954	1
1.8848970923517454	0.16881249457229652	-1.0098142951520168	-1
1.2077221996623952	0.3428842914029306	2.201323943741627	1
1.6449592337868293	-0.8180028862209389	-2.0916373816019846	-1
0.6513422257585015	0.5821286079978037	1.4696386129375967	1
-0.35573602616439126	-0.2059371408764525	1.7695502004091936	1
-0.1836724432240526	-0.7887309944782058	2.3232312876693455	1
0.1774681099867291	0.6066616437063512	-2.3222023197692923	-1
-0.2472462467141673	-0.20683522968609844	0.7178805328323299	-1
0.09028718081104381	1.219223970859861	1.2691698961794817	1
-1.8181155255860153	0.36311842953315776	0.9240452050474398	1
-0.6040027135452761	0.9840458303832407	1.8045384801345976	1
-0.07978305119558063	-1.962827351488997	0.9744097331582577	1
0.9297024891585792	0.985504671955467	1.7271345147063322	1
-0.26575371653309227	0.05831259604105896	-0.8785152424820751	1
1.3579647871143055	1.8176080355248019	1.643824517126108	1
0.012270827845619144	-0.12601901634668253	2.558458105966046	1
0.5593448922524188	1.1204182811909607	1.8917910535776046	1
1.0443482951293364	-0.7779462391404385	-1.9575119256621603	-1
-0.03337189614490251	0.040783274793418194	-0.797467975924226	1
0.9589517856251657	2.4019450129561957	-1.4599319534763424	-1
-0.48039248263189366	0.5660929987695134	-0.28613474531811706	1
-0.44401138013980257	0.6909167820581174	-2.061766401785284	-1
-0.813043977200358	0.395007983883368	-0.8665610926093887	1
0.33047486013272254	3.0088460000943567	1.2557843969670892	1
-2.050399685249792	-1.5226350976482923	-1.833918362143836	-1
-2.0832159328831685	-0.10419494413074436	1.513050096242689	1
-0.20998120886969615	2.1748959392087293	-2.877064526793594	-1
1.2330385495213168	-1.8115333523811654	1.197687573531361	1
0.3918531201836091	0.7630704711825165	1.723599203848184	1
1.3036060917458308	0.7642618007384979	-2.461229457422328	-1
0.08336622640324917	-0.017713165757671977	0.19923730287925867	1
-0.24281321207521006	0.6915010123672207	-2.7991378281749273	-1
-0.16629165325359388	1.297255043424188	-1.4207301341919916	-1
-1.6909457322813848	-0.8264462388381972	-0.7725972975913452	-1
0.023789915109363922	-0.07831681004670989	-0.23263547156595255	-1
1.531611469918951	-2.6758946899780502	1.7027552911801138	1
-0.5643655828400266	1.9965915281532194	-1.239575048093002	-1
-0.006246386552712629	-0.5256641125584088	2.757059586241219	1
-0.001056205469021513	0.4608940962015588	-1.0345186810451226	1
0.6412792426494696	-0.6886303096622433	-1.4168977362001387	-1
-0.006107627715030359	-0.012101895418083012	-0.3536449359691366	-1
-0.4002315302190758	-1.3587100257985052	2.2118695536711583	1
-0.12517183547496136	-0.032367286365376384	-0.36956115484300994	-1
1.5832002820105504	0.8065247545125148	1.5496641586326392	1
1.2973650030295913	0.39001710892179653	-1.6068458160606314	-1
0.2879933268290686	1.5749582245221063	-2.592556790036187	-1
-0.0128883057765014	0.004245374086474712	-2.7338488572026436	-1
-1.5872330397462788	0.5338178625250877	2.167444512208738	1
1.5911120343761809	-0.6215195811732076	-1.2277938347229	-1
0.777353797916143	-0.47093409709430234	-0.5955391916021616	1
-0.005378647357675111	1.7255997420259828	2.217784150541785	1
-1.1688025151724486	-0.1088397443280841	-2.1645353095674134	-1
-0.4196452962025117	-0.7192973579328287	-2.7268354601834117	-1
-0.7893383146555464	0.3719668138649434	1.7462574109434692	1
-1.2902010043066163	-1.1166952995393615	-2.435517397614373	-1
2.0181624330922925	1.0452721947831078	0.5872654296864591	1
0.22778947704603533	-0.11815763104522192	2.015955315094876	1
0.2995798563400646	-0.6615832591807688	-1.582063022149538	-1
0.7797359045538202	-2.004554452157605	-1.6785141933746546	-1
-0.1190466229003345	-0.8976164100999475	-0.28911529001060654	1
-1.8974084557212134	-0.7133071996047893	-2.149673126296967	-1
1.0330984911967944	1.5318998800322374	2.0343994249438935	1
0.5365087968018646	0.1837033184662134	-2.676950330205061	-1
-0.5824641257520738	-0.08191929103427788	-2.4716922539105948	-1
-0.33143914995736656	-0.07296598275546429	-0.9285334510419025	1
0.0979300257622099	0.1749906674726063	-0.7433341398012682	1
0.9405102905208141	3.4253721379889392	-1.5283993286995654	-1
-0.5180206310102429	-1.6217315647004125	-1.7813082317410125	-1
-0.041515784153409944	0.6273934403552399	-0.4421074416850904	1
0.18160695139760122	-0.11538472513087764	-0.6238924337784253	1
-1.5528322242622807	-0.9827283886965961	2.2073099099682554	1
0.027203688864184086	-0.5633471430407037	1.1264456681319515	-1
-0.17185202777673858	-1.058961366197428	2.968621389238214	1
0.840785878501213	-0.06106137410512019	-1.971602600587832	-1
2.1668811425737333	-1.7011742421465172	-0.7737110013147954	-1
-0.6926607485288468	-1.7630908819285822	2.2557718356008136	1
-1.1528023858205338	0.9607662311210383	-1.5011209988457446	-1
1.7196441665557072	0.19353873257806506	2.835687969324131	1
2.1319935031199253	1.2075086802913577	1.3164423989197676	1
-0.2743237138495756	-3.231781595071357	-1.3980311351488535	-1
-0.10706989562655843	-1.2006828184977723	2.3650155614827404	1
1.4141086161219745	-0.7089013493218267	-2.147463132586765	-1
-0.4822527106443009	-0.4929579296029478	-1.5914375297804066	-1
0.7021587269881802	0.2872956801256281	2.269089994551439	1
0.5054121420706007	0.08282325812136822	0.9383188909480392	-1
0.5116652343447011	-0.2971225950043168	3.0458983341841046	1
0.6505864537433473	0.5807490468944567	-1.9136276147802684	-1
-0.24037682904456262	0.6813047344914566	1.5475057615611902	1
-0.25003460870368355	-0.8653871249229934	0.7223541807992953	-1
1.616098344703961	0.2434247768570925	1.671007233570417	1
-1.1642156586305956	0.07437683738736899	1.6411882991955098	1
0.5755207478950645	0.35096145867683703	-1.7620597757326957	-1
-1.58582353604685	0.029393794770047377	-1.3816481364840192	-1
0.4986036646021148	0.8610295325125666	2.171086714832221	1
0.6107880370599557	-0.9479980989009699	-1.354318220780696	-1
-0.42243558898159944	1.2705948828806441	-2.9379111348172793	-1
0.5077347747868252	2.0591919015618205	2.164939867860349	1
0.5676069806855929	-0.429054975234752	0.6602468889581523	-1
-0.7108597183876787	-0.8754063772875974	1.555667114389555	1
1.357160022052942	-0.044307922500978	-2.2683630893907396	-1
-0.31029048130904224	-0.7420995629198095	-0.7768804425863506	1
0.07674108713785724	0.04890418770049888	-0.14846305809559465	-1
-0.6211564580552112	-0.1270076790867992	-1.9798855731871783	-1
-0.7872581779320279	0.9471079018131668	2.3335179122572414	1
-0.7315773995390751	1.5212249612431359	1.4575936331944568	1
0.6226800689329721	-0.28056034941836366	-0.8577290712540138	1
2.048506394840746	0.26404263313701526	2.927430859317699	1
1.0047017030674315	-0.7361095164014089	1.7537995346206228	1
-2.2606312683176566	0.6611389544189382	1.7558173648200506	1
1.3439305679746054	0.9930523826680058	-1.3928366917199095	-1
-0.07983073910925449	0.6406147743938573	-0.77212331359499	1
0.9098920707749086	-0.4609529489479652	-2.3132831883435645	-1
0.5720516790612202	0.6695482576413502	0.3977840081912529	-1
-2.720118506237404	1.0195896762635481	2.2227273226009046	1
-0.3680150059843164	0.860265722199623	-2.615029012422444	-1
0.2857466091656646	1.1180398489803365	1.9686360593241106	1
-0.10645604569664822	0.21166696506564167	0.8146363815907072	-1
0.9055699236382122	-1.2303950549990468	1.7826801806395876	1
2.345248827532305	0.062139248034125565	1.13092817237838	1
-0.7563412952568009	-0.6280131358248552	-1.502976997250745	-1
-1.6917761243223488	-0.128540479743929	-2.627565816949042	-1
-1.0315727926346414	1.6369121936175384	1.9156673078187634	1
0.5973028213796424	-0.31942105389541786	0.47581308077640927	-1
0.5136171309470818	0.08698266481536895	-1.6366440395494142	-1
0.530467525611518	-0.5050799439869794	0.7118281865957634	-1
0.5478316544753987	-0.2080922100028456	-0.7628812972904995	1
0.20219656145252302	0.2843319820322129	-0.8743432576553465	1
0.9389570479540055	-0.3630883731097811	2.3629334064378984	1
-1.1175006708206503	1.9468313323739332	2.058675298800956	1
1.3032000234611685	-0.21249978434572392	1.0087469434670508	1
-1.802912092221507	1.9370006643401287	-1.8512349380762274	-1
-0.3629253374043128	0.31250007810738145	-2.863253731555767	-1
-0.12078772941553484	0.937138767385076	-1.749429898355788	-1
1.8038894819065456	-0.2612938661130533	-2.082546800595808	-1
-2.8215577567479997	0.18769698689977904	-3.862932560776111	-1
0.6755933670969172	-1.452689862455906	2.5974701298104783	1
1.1335868358665877	0.5158278169600496	1.4530216809667449	1
2.0443567765069934	-1.5465672626710054	-0.855725517473831	-1
0.5164908562348223	0.5381082238423355	-2.469919928148365	-1
1.5757072197634503	-2.3923019392086307	-1.9732139558510302	-1
-0.0062404382518244815	-2.314055956406373	-0.48562886472405575	-1
0.41872270798814654	-1.6539775040005453	2.464625198223427	1
-1.8050130391480108	-1.6962758715846338	-2.51994356272016	-1
0.17361396222489003	0.03505912742339287	-0.1324832147614974	-1
-1.3932868072029163	-0.8956453154014222	-1.705230935188517	-1
-0.4369106975610042	0.9769286812226602	-1.9960570297952858	-1
0.036785643903423135	-0.01946596792155236	-0.17251990714882606	-1
-1.3457794811948371	0.8487038021874765	1.1753109432064723	1
-0.5396392911242306	0.11913596290812403	-2.4322492440351873	-1
2.2536803282396813	-1.2217530941102859	-1.8940230248012708	-1
-0.04196481370955159	2.8748904607036883	1.9943039327774525	1
-0.9399847086089892	-1.356043927384497	-2.817116894168574	-1
-0.05541453703228835	-0.000262179788853055	-2.2062243894637326	-1
2.6560281960343577	-0.44625574714599026	-3.307337062351232	-1
0.37302832635628524	-0.8644586255954642	-2.5319170040145687	-1
-1.3166244962475142	0.02876354478784143	-1.4291782345286164	-1
0.5357155243792364	-0.38281961787489155	-0.9575449426168275	1
1.2968776797149641	0.6132431308485309	-1.344736364630545	-1
-0.8496197296457372	-1.547516023093528	-1.5106305018396406	-1
-0.09926601343095742	0.9599958036673997	2.2610245150914796	1
-1.2735420046788493	0.49209789448826813	-2.1650972679681137	-1
0.03466046332113623	0.013255580171262472	-0.3227955502598936	-1
0.5396121112552392	0.4026045494852711	1.7199554570843762	1
-0.2016501390726495	0.31563305657725715	-3.646734588810217	-1
-1.373285983354596	-0.04271473571991981	-1.5616445282692557	-1
-0.45329437243161536	-0.12378085861694442	2.358435333509683	1
-0.45825407159873494	1.6953553294917851	-1.6048837864059609	-1
0.0034946099811670526	0.03335627112258426	-0.19780685185410463	-1
-2.061789602681079	-0.828028772375302	-0.9606192201505928	-1
-0.4027508442807978	1.7719527831153112	-1.6561981279206517	-1
1.0132187983637078	-0.9386662433903713	-3.0635681416024703	-1
-1.4224455175754018	1.6990639451414802	-2.838032767733315	-1
0.7013592058190912	3.6041282499212075	0.8346410121235558	1
0.13041103028308448	-0.18791211438833	-0.25555873926697437	-1
-1.6546232116698296	1.0904675878709735	1.8637155231834743	1
0.39871914955999604	-0.7367984662005771	2.385276527123734	1
0.8367331117578346	-1.5364782252915088	2.319728241174473	1
0.8140467353207722	-0.7101622444800336	2.1223756769648503	1
0.1998225275185994	0.7898967957361882	3.5080093266356487	1
-1.3538187837192663	-0.7019317203433152	0.9236695759666997	1
1.1968024802603903	-1.9801104158735148	-1.627174344914765	-1
-1.1254851000457866	-0.4447549607990615	-1.4369608778843908	-1
-0.9604736865754995	1.5432233187225046	1.561183277892072	1
-2.52998846889313	0.9875435426103047	1.469400251471319	1
-0.032120629952758224	1.0252780571817321	1.6157695012264797	1
0.9715456850749234	-1.9666224637687315	-1.2875361136867214	-1
-0.051171698184312046	-1.1661670066034506	-2.2527106367012	-1
0.11981507304448875	0.4012758657661607	1.2102017844388329	-1
-0.7832178749896137	-0.022025919476853624	0.8800078177734681	-1
-1.286475934247644	0.42101724565458537	2.549330105542662	1
-1.4661608819009402	-1.6191042560146638	1.8919123439653813	1
1.2807364521346898	1.2191125559124651	-2.1308683138479263	-1
0.13863285061178496	-0.2028291291722961	-0.5528593413927811	1
0.02054335567583194	0.3665125945520248	-0.7947285594769944	1
-0.9338436628939872	-1.1519416235662812	-1.9752758004529207	-1
0.9525008732775162	-1.4606666451119303	0.8520781513092726	1
0.3441304052778702	0.8985129662328725	0.6800962699243281	-1
0.6523073231951007	0.6034277033527494	0.6847656713209891	-1
-0.22313773818429705	2.465736322862113	-2.1796687571167026	-1
-0.611049578088231	0.9289747393396981	2.4049336250319255	1
1.0381325085196882	1.700619019347498	1.9995426512451357	1
-0.49006843725379634	-0.41613808995930635	-2.768730698204017	-1
0.5119420509888307	-1.719230864224548	1.7292733725117326	1
-1.8596855746352479	0.5339677912421862	1.5447439986146823	1
0.7777784112392977	0.5154590731002817	-2.219198816363258	-1
1.2432964873335248	-0.06975506615557316	3.43136019734421	1
0.9627888964515746	-0.38184408352675514	0.2984458326692672	-1
-0.7446351197956347	-0.2826909004645827	1.6329810953544646	1
1.3333406976258688	1.6953445446674502	2.877062483716479	1
-2.246331868015998	0.3025791855775244	-0.6104486487336072	-1
0.5707052654253758	-0.49775045868125045	0.45558356077947937	-1
-0.513940975969278	0.9931451296872489	-4.258586697028857	-1
-0.44922831304352173	0.31256587697893357	1.9571000189258827	1
-0.04829271361165647	0.014511195012227002	0.19987018400508566	1
0.030557302255338717	0.5356073305705428	-1.0310410034295205	1
-1.1840358884732334	1.4098806060473381	-1.2588074861570375	-1
-0.12184892286529383	0.1260044243412773	0.2991455576066127	1
0.533313262193092	1.818975464879375	-1.137082378126263	-1
1.2130237091855125	0.9927662296165505	1.0941876046566927	1
1.371715399317748	-1.5842995977300893	2.447238190997183	1
1.1967626396525255	0.8539617015206815	1.7140960023703902	1
1.4276804116042712	0.23218438458952684	-2.0389630777724235	-1
0.12380310948002698	-1.2348113114640429	-1.66221942456614	-1
2.628011585359883	0.054817973400799996	1.1206041896973382	1
