-0.44813658248464494	-2.9537075240405954	0.20161692996638103	-1
-1.1527635746694986	0.8609975710066151	1.538767756255071	-1
0.1664913546941698	1.9594072386172774	0.15947834250244183	-1
2.720249523280842	1.068897758937295	1.2376156557963651	-1
-0.3884140482476277	-0.5923253237152619	-0.9324984629692988	1
1.3162040630198473	-1.4316255076308384	0.4085442377324118	-1
-0.36324997910151785	0.9635187931635649	-1.5950907274605985	-1
-2.044383389077977	1.158613556684754	-1.114177925882479	-1
-2.0759066497267056	0.8065431595136643	-1.5061835308484708	-1
-2.387453454192859	-1.0943283162417843	1.0819721578299386	-1
1.1879401867004933	-1.4033347718504117	-1.4599139746114287	-1
0.6817357653387921	2.310011535748019	-1.8226683084626913	-1
0.4108036243487386	-2.2255810127571207	-0.08335360118380307	-1
0.9193282268392848	-1.0176436966808138	-1.2272267034307465	-1
0.49077822694684353	2.267361708952069	0.7050161507084262	-1
-0.8018154980244317	2.048667342183237	1.6480130811074478	-1
-0.6349865470791337	0.4701369497154142	0.2897683240267562	1
1.5942795374791405	1.7277284677448552	-0.12443849166546656	-1
-1.141204780789209	-2.026972751055091	1.2327285323659307	-1
1.7950414999216289	2.2777472622983415	1.3488603832913075	-1
0.6177415077296899	-2.450524299430501	-0.32901548178820095	-1
0.6702884418628554	1.9016623632040692	-1.154024615310218	-1
0.7134567138345629	2.2717235648252516	0.2814308730463963	-1
-1.789138770888	1.801507890927196	0.606003870304444	-1
1.5666785587558167	-0.5839035396646322	-0.9578003636163569	-1
2.282790996179418	1.4361666305409118	1.4813693219241562	-1
-0.01431209122797509	1.6033254869322164	-2.1562627049207377	-1
-2.459911555533742	0.601304576038701	1.033376618681391	-1
0.6045429050051145	0.5433989576845493	3.917685765142883	-1
0.29859760522407114	1.475315133348839	2.1853164311662168	-1
-1.7540564490432713	0.5616025568842181	1.0443589016158121	-1
-1.9231313678308302	-0.9823319375610172	2.0131272353559866	-1
1.078624853285384	-1.325446675447182	-3.328837269346498	-1
0.4432808653928706	-0.28169331729872205	1.0399899707699805	1
2.1384384383746227	-1.4035481744945857	0.021345868666680257	-1
1.4590421469862926	1.599158981219967	0.395856898756912	-1
-0.1256325240278241	0.816638352723275	-0.6068133889361472	1
0.9085365568923129	1.767059443883435	2.076561017769556	-1
-1.741340979317431	-0.3724310368153171	2.4950305303905234	-1
0.28206014186133216	3.3446005091358324	-0.8226535311829754	-1
-0.4935470737441412	0.2632577894451598	-2.0148879975238976	-1
0.31543507125439263	-0.3454437994999755	0.9987841681804825	1
0.4639555029133643	1.0502354047081972	-0.40942176978987616	1
-0.41437369394805545	-2.3740386436075935	-0.27160715116949263	-1
0.3242634037670267	-1.0592087762223121	-0.15548103883184167	1
-1.756398201944914	-0.5996848675297693	2.0831203902492805	-1
-0.3132246959667391	-1.8833254947288052	-0.4365698000918805	-1
-1.9963423010925287	2.4534309500099516	0.39650947834419675	-1
-2.2108967411620375	0.3628822099178886	0.8614647537605497	-1
0.5497899732786933	2.251752680515742	-1.4613734352177403	-1
-2.057779988778946	1.6387275771980758	-1.495215831917394	-1
-0.402051457748866	1.3103659045527152	1.3523906870200522	-1
-0.228154111008932	-0.740774038221423	-1.850819939968371	-1
-0.20926995913060648	1.268892222547916	-0.011289380716017103	1
-0.23869984061756228	1.7921425127778041	2.7297030142223755	-1
0.5726870689422124	-2.268752541365593	1.8210570506662602	-1
-2.9090868797878255	-2.381048888776418	-0.8152118186796717	-1
1.8988939470286264	0.15337114772579125	3.984446174610537	-1
-2.3064226455244716	1.7047809164441199	1.3644629313895857	-1
-1.1218934522361999	-2.8810676370249837	-0.6341326586071973	-1
-0.43354422803552384	0.8569846106082644	-0.15463282470588446	1
0.5646094980724702	-1.066946231934679	2.607478126143173	-1
-1.0688773843981871	-1.1604989169131281	0.7620791052833957	-1
-0.31524219121538316	-0.820517335729122	-2.663382082946161	-1
-3.0217960404590856	1.5049486162115293	0.2988193936288615	-1
2.3811244550897945	1.0927348951453228	-1.741973756616094	-1
-1.6107619132604627	0.0009304185436738347	-0.9507530019985989	-1
0.9890584485250946	-0.9055945356974106	-1.8340913557934124	-1
1.6114216956441212	-2.2941325893862214	-0.3490697023180987	-1
2.5128968384445614	-0.7983185793002827	2.1733636063979676	-1
0.46981037897179007	-0.19647883821626771	0.9662042394712653	1
-1.2692757010636888	2.2501073380839034	-0.08772646476895792	-1
1.2319795066918477	2.1377277829006553	-1.1978579157218914	-1
0.11899367873402728	-0.28482292790616726	0.8495685427013664	1
0.2015114065864761	-0.6875744669034597	-0.5957664867645482	1
-0.31773927170842076	-1.9850580439401	1.8937609360286587	-1
1.341817307556929	-0.17014741395934116	-1.8879413658460331	-1
2.365994742403675	1.8156517444176625	-1.2623420016613434	-1
1.4237429412950342	1.6138510740264569	-1.606585022327681	-1
-1.5776437049811853	0.5517132412947691	1.5318067258477834	-1
-0.30422346895657043	-0.5977352894131406	-2.0511475252772726	-1
0.075682799136272	-1.8301977546448087	-0.8134334806459903	-1
1.8750497827186736	-1.5505483373708735	0.5082970229103303	-1
1.474165933252086	0.2054836321166202	-2.1384825202322424	-1
2.8704641412279748	-1.218240822698231	-3.257351930093572	-1
0.48334994545270105	2.259942604524146	-0.9097047950280035	-1
-1.9036593744077512	-0.8415345207967804	1.2543304794140693	-1
-2.4585598759979117	-3.0683915746517627	-1.6508210081157975	-1
1.101528623760456	-0.8292634179556345	2.010796904774713	-1
0.24102371706489345	0.9221025957415705	2.5565250018586063	-1
0.4246420282572764	-0.1940348372184456	-2.28492017361168	-1
-2.9732986007622877	-0.41074645222517836	1.655827934083272	-1
-2.8850218565563353	0.6601887365722549	2.4590738941675827	-1
-0.24430367995071223	-2.8458062682308474	1.223892622173461	-1
1.83929758115972	-0.4499398524510205	-0.9055983874840907	-1
-0.535070156225557	2.4903281733200155	-1.3993794464923983	-1
0.049875611297670985	-0.9492644901070352	1.9292457818228923	-1
0.9939181760226588	-1.8074004953730398	0.6092379158332877	-1
-2.038274471452325	0.9295943330265044	0.5664262474541228	-1
0.5142172113195804	-0.4388319999942004	0.6497638463004234	1
-1.0750937512351812	0.9949229916080585	-1.6505906251681255	-1
1.1539211424782265	-1.0801731208036347	-2.175141824675069	-1
-0.3598148174922775	-0.2107765871013021	0.9673086405807769	1
-0.4940835262442729	-0.22555120695597744	1.8348461884735698	-1
-0.2680806506122256	0.6485044382739504	2.3487975900315763	-1
-1.786539419572958	1.1876878026284587	2.441105939452934	-1
1.054911856001347	-1.1372298276130988	0.9132532669122263	-1
2.1723010914461205	-1.7481130439774348	0.8463783457707967	-1
-0.27101990165795353	-0.31529214226698343	0.02800718091761825	-1
2.5633370936465325	0.08453192976071779	-0.20696763413022767	-1
2.018654126128896	0.7955443066933665	-1.2110291498085535	-1
-0.32052366026210843	-1.6525943812207164	1.7149710772368263	-1
-0.1706333433107614	-0.413505268220188	-2.2467163079632235	-1
2.996374866700169	1.50830958466596	2.2108600428099616	-1
-2.5484981417899064	-0.5552373542386717	0.23931331593209013	-1
-2.444191704254806	1.3614402840223343	1.0625027730841867	-1
1.4214771151360162	0.731268879612943	2.745769879659451	-1
2.3899007472669154	0.8235622217789921	0.2342349519117336	-1
2.492584563853416	0.8077358201627871	-1.400595930663827	-1
1.256666646188798	-1.0230156115073552	-1.0917178747065044	-1
-0.17228155581848875	-1.2914747782979414	-1.7128378719118267	-1
-2.18472531809402	-1.9862837713494308	-0.5861991451392187	-1
-1.9240229118552712	-1.1665338413564872	-1.1494805003802442	-1
0.18959991108804694	2.254002974160955	2.259801355762208	-1
-1.5629591758923678	-2.4419412245308902	-2.1255958358236717	-1
-0.5915644409387338	-0.16807725735053214	0.8228494655175889	1
0.05030022482768048	-0.7919592025783135	-0.5764487424099135	1
0.7551881975925137	-2.5916660772422677	-1.326670479821198	-1
-1.3401307387660588	0.9155145653755844	1.2274535442068646	-1
0.8153675594470777	3.341388770856218	-0.6433167371728928	-1
2.5847745409329748	0.5425553500680053	-1.3875477204557867	-1
-1.0976712170751206	0.5865191972326579	-1.8029515353415815	-1
1.4943677696529725	0.6328478037234069	-2.4821121365865166	-1
-0.8043670483420886	-1.7609527930066067	-0.626519949979393	-1
-1.8619454239163766	-1.3251409437007953	0.9566352176788195	-1
-1.3949331858902068	-2.7507124015565023	-0.13901204102307116	-1
0.47867459548252694	-1.982431686093203	1.6122165210395787	-1
2.0949000128149944	1.8995082616138657	0.1039394486510723	-1
-1.7080567968975258	0.015401052325201918	-1.3748747612861556	-1
0.790368374979638	-0.8035304594689703	-1.5787085084825003	-1
-1.686204972820318	-0.7557700461359601	0.6859870476489672	-1
2.587486447634486	-0.8285297438692535	-0.39696463561949114	-1
2.696273085292719	0.7923072705937971	-2.1539097479774956	-1
-2.1206385964856245	-3.2029084881734087	0.882178690294336	-1
0.03839488823947833	-0.28868170644936053	-2.3301153449836507	-1
0.9791792493894154	0.10585743935799555	-0.42571160161522353	1
0.26157985099421766	-1.803892657152533	1.107217388925555	-1
-0.638978950468278	2.3812896900498814	0.045812283138259524	-1
-0.1799209948581834	-0.28943793457913736	-3.1374137969915967	-1
0.4970293250659612	2.5007056505161245	1.060810937016925	-1
0.49524396135097837	-2.4651342396089375	0.4693591472731611	-1
0.7100995194235553	1.0387714554264897	1.981835740004192	-1
-2.1798928262365593	0.15898853510543565	-1.6386577641729698	-1
-0.6031681684053337	2.9139128595479193	0.4454814090869048	-1
-1.3991294857018068	-0.4679441971073741	-2.1057668101066747	-1
2.7500496885126444	0.6718048224118061	1.6670221003059447	-1
-0.828732544684903	-2.389125057517064	0.6129907945015316	-1
0.06447675096785827	2.321522968923523	1.9254048158238317	-1
0.45214410809311645	1.8654735691184112	2.3840731137362625	-1
-1.098314147669992	1.643049978631655	-0.6921599811411583	-1
0.3586639573621311	2.1867412517866263	-1.4530073267199326	-1
-1.857030064549758	-1.6397589493415723	-0.6263647642104563	-1
0.03831754582965748	-0.39556156617564475	-0.09639973149331775	-1
-1.055626568475651	0.04346688825901872	-0.5751444975251522	1
-0.6016424539711861	1.2542149155046252	0.14833652574984943	1
-1.9346877902648794	-0.593074039193969	0.7691398777524681	-1
0.07159836677190881	-1.3049846875929214	-2.3765578737011697	-1
-3.107825995338956	0.1676795599327804	1.319880889245364	-1
2.3081710406318203	-1.018095312176693	-0.43565929521905633	-1
-2.101944259522026	1.058878182410053	1.7702729060076738	-1
-0.050385573867932965	-1.082373886168879	-2.0693837728093776	-1
0.7423346109025916	0.29630859300590123	-1.7720040813042481	-1
0.540717636948715	2.584131756089249	1.242561817975956	-1
-0.5105384265701122	-1.1959323822364392	-1.5311583069748715	-1
1.7926124514915411	1.2852167198707924	0.9408566591918375	-1
1.2482814501550958	1.2368459836785617	-1.8768676369890303	-1
1.9574490682755912	-0.7658676880698576	2.721731724271986	-1
0.27441674369935026	-0.2823049806596919	0.16723768128836408	-1
-1.8957217020597028	1.798068995805162	-0.8564148473840105	-1
0.7835220581110462	-0.34141649421542586	0.05785867731262975	1
1.6991609613473404	1.1031094201145346	-0.16870684387738355	-1
-0.7768089510716033	-0.2472303469698888	1.0812435638868816	1
-1.5871356395979206	0.03505008908071789	-2.4861570615825492	-1
-0.05460040201552983	0.14540703774956065	0.5277039362161656	-1
2.000367716881381	1.7322024372252447	-0.7423210741862696	-1
1.2326550012855895	1.704327158415396	1.9340145518987726	-1
-0.1143566400907382	-0.11348824950397066	-0.9140337528868865	1
2.6366874566109133	-1.8632073996441485	-0.6224700621598578	-1
0.2236311993277599	2.7399203586609104	-0.5125330452788984	-1
1.8190344804654632	-1.788393043834245	1.0115972681054939	-1
0.22604534252239128	-1.039059913286701	2.704598650770926	-1
-0.04918050377133251	-4.150272918386617	-0.04871571746686526	-1
0.1577771411206453	0.12626795125773102	-0.9664371496975179	1
-2.14659118720538	0.8224744361621115	-0.026005100312760633	-1
1.2420945192199069	-0.30176309012582814	-2.2171091901974385	-1
1.3167640488250405	-0.04402145020567166	2.14911336541182	-1
-2.871022340233509	-0.502603623509623	-0.5940026700127243	-1
-0.37780198274711674	-0.29409430562315575	2.2479529753366747	-1
-0.12761431771489076	1.0305280206972558	-2.1710363704357705	-1
0.21201688967259058	1.845820185879568	-0.671495879866221	-1
-0.47939264050956343	0.7329657696476137	2.8759403484479447	-1
-1.7169848797562928	1.978085385306153	0.728683609925288	-1
-0.03759828414208348	-0.001314800986269075	-1.003157148774083	1
0.47410271620976885	-0.8114753911821883	1.933629581394828	-1
-1.6476774033868633	1.742709239858095	1.7283134751137224	-1
1.7178138541760555	0.37639372420247547	1.2176093718047154	-1
0.28197835461169235	-2.0326623066950966	2.0295669070075824	-1
0.9672885230501612	-0.562995797764384	1.7824149371226792	-1
-0.8215978256803744	2.7282287974292814	1.4260611617512537	-1
2.3799956682419476	0.45403100454338613	0.5250099267311203	-1
0.5975761518006522	0.6644020522887726	2.373871922928321	-1
-2.185265611733769	-0.7265121328362824	-1.9332670165785188	-1
0.0315210536820224	-2.782417110580934	-0.21693254678807997	-1
-0.2640027952019013	0.14614142844932648	-1.8372151483472834	-1
-0.5050395261429882	-2.0643300913675033	-0.4430233135069814	-1
1.3952764927139034	1.929072738444534	-1.8845753214772967	-1
-1.149166581280773	-2.2601848648336262	0.5113080594011766	-1
-0.423824084571114	-0.42914458227392394	1.999558908085285	-1
1.5716017651371037	1.1049181349641743	-1.4231820304074336	-1
1.639808893735507	0.24607847644916148	2.4583726308924767	-1
-0.28057551407898446	-3.128935012231262	-0.29717069094159043	-1
0.1480097729908884	0.2773730394674314	-0.7237890672179121	1
1.2637727444943307	-1.333344727504027	-2.355800554230992	-1
-2.3388748926862637	1.614417617995639	-1.0775535204451654	-1
-0.3497978801836054	-0.30605624085970123	-1.0660545609692793	1
1.903567854547231	-1.78302157231273	-0.689582035137659	-1
0.9407442377033868	1.4401939265000836	0.8717276242031773	-1
3.2266572657144525	1.1051910728804106	0.4602320908905762	-1
-1.9846978259736219	-0.33491100534778845	-2.818147261373327	-1
1.2601680083598978	-1.9013169025267525	-0.3581847607351692	-1
0.26124997818356693	-1.1650962122680328	-2.3047617645952747	-1
0.3823935764708336	1.8944197861166125	0.47799651012241084	-1
1.8948892943812083	3.976613930364166	0.7934864867357495	-1
1.2709685358306855	1.9466623210227845	0.7339027415405438	-1
2.711427688178576	-1.0763777634432854	0.8374435035914227	-1
-2.5361941025342594	-1.1340920710402624	-2.774576273228476	-1
-0.489442462314871	0.26482213983840647	1.0852036939673722	1
-0.5176754486079692	1.4767963451923225	-1.0874345106823304	-1
1.963074027010934	-0.18612275984709795	0.7315140460874958	-1
-0.8202692716520312	-0.26416777013494536	0.22325137507825366	1
0.1644299793168342	-0.07314051566850291	-0.9332246036285267	1
0.1740705154591436	-0.08965588108497002	0.18682009726614934	-1
0.04472782995524237	-0.1349758376685615	0.9816781255814089	1
2.329696427333687	-0.09283225085279428	-1.5374490934039113	-1
2.22034660240424	-0.6721013562168884	0.6704733805161868	-1
0.0222287187483037	-0.29561551274028464	0.17173649643062758	-1
2.0524473301681283	0.7953382224170896	0.28604397523313674	-1
-1.423428029818555	-1.834688536712073	0.7215085477476249	-1
-2.6674016422163085	-1.4937836494697072	-0.7064261570781445	-1
-2.1018871566757453	1.07299480387863	-0.3442910689032304	-1
-1.0729524345266153	-0.17764382904799333	1.7024217576737855	-1
-1.303333540678099	2.7459763770685512	-2.1311072618402154	-1
1.0686275045542843	-1.4303291033944645	1.7692957373399656	-1
-1.0111148151642886	-1.3820159284064943	0.915571033997292	-1
0.004425987002986763	-2.5616485098926725	-0.8554927630942694	-1
-0.1449321045745582	-0.2463855130831125	-1.0170603568417695	1
-1.351282382690238	0.894871828922672	-1.010473402550937	-1
-3.980860637935652	-0.8685798143540293	-0.7023464180998483	-1
-0.7911300969108133	2.336030900537588	0.5035731725372373	-1
-0.039616040665139324	1.0057694053452895	-3.084725005032872	-1
-0.3268078776045049	-2.980060776527125	-1.7502057010617904	-1
-1.0297133763024322	-1.4411743732285194	1.4155015022405344	-1
-1.7303342424403922	3.1618269836022517	-1.0616487351762962	-1
1.1533186170437455	-2.0794072168605786	-1.0058520875901658	-1
0.8929751904460774	-0.8286637675676982	-2.096816272378515	-1
-1.2075342792783132	1.7645260932505136	0.01415097685347184	-1
-0.3578980413676548	-2.3831429862032403	-0.12543482046907115	-1
1.9755130841752124	-0.0957437724372463	-1.41101637034233	-1
-0.3248431433287386	-1.0129307119773632	-2.766547653478146	-1
2.1631547612922755	1.527944220034798	-2.3388131372829393	-1
2.801056169352702	-0.06608301088087454	0.2128199025883422	-1
1.7452373879758873	2.781024675038033	-1.273963892191224	-1
0.9120830624269726	-1.9110451882842885	-0.40775197610472724	-1
-1.4249889247975753	0.565716038128146	1.3486335420562439	-1
-0.6089157245484705	-2.1216700237545725	-0.1721841555634466	-1
-0.8236398509275147	-0.6267255917462206	-0.09079365688811053	1
1.6211596666524013	1.1101633105532898	-1.2271451532475333	-1
-1.9492649221066412	-1.9507939720400125	-0.1191484702175887	-1
1.1771744944353502	-0.5033328743330906	-1.9678445387945651	-1
0.018169999530693502	-0.8983420685852332	3.4918527316759134	-1
-1.1762597742909708	-3.8309493531414107	-1.1795428043461698	-1
-1.9829149605308825	-0.7467165981024925	-0.02650767352914194	-1
-0.14176480177928957	0.44732684259062117	-0.9284860819947852	1
0.031260930175797084	1.790696274420839	-1.4908358248549978	-1
0.02882334976847083	-0.032309899302138775	0.37407712867900594	-1
0.2102019261699745	0.12677682813099797	-0.17092550166147402	-1
-1.8028496925633242	-0.17055442677794982	-1.1218872330687049	-1
-0.18658272182464808	-0.4371449841833805	1.9011073831536007	-1
1.4125616181080314	-0.2183647798593613	2.7378177102794403	-1
0.09368467931279395	0.2528157426348986	0.15421007877036735	-1
0.1924523189779668	2.181076025830155	-1.6504795326540815	-1
-1.8090577805421058	-1.9354704092005812	0.019510070818092896	-1
-0.9139188764780354	0.35133742163624554	2.682744601577238	-1
0.16521876103224398	0.11275935650615132	1.264498921395119	1
-1.0261761888673706	-1.2380862075474242	0.9706587431717385	-1
2.7388273698279026	-0.7274659424543664	-0.7041749072026746	-1
-1.5376912584937321	0.4297892600693669	-2.9419152755428155	-1
-2.4544611739459294	0.99814268475318	-0.35258238833599775	-1
-0.4435042554996175	1.6795314517799143	3.217387779067535	-1
0.16757622527079868	2.7072718996600234	-0.19499582628093154	-1
0.7800746339222888	0.6008412759559452	0.6996753666729567	1
-0.7917695425782273	-2.1095113217579313	-1.5730076694048005	-1
-0.8785998486486744	-0.49466382547025045	0.41479979174624027	1
-0.07513867449435557	0.3900277761580616	-0.027320335267524632	-1
-0.4059994061197242	-2.7449997330687443	0.9675180889747379	-1
-2.2591650875055396	-0.8084869445930828	-0.6842071202168214	-1
-1.0991582762708914	1.0537719450285523	-1.7115158413999252	-1
-1.836503240696947	2.3731665088920617	0.6549966951971371	-1
-0.2239384687611776	0.029270449822838485	-0.8071594794293664	1
1.0419356663400412	1.3950086607509558	-2.102372559080609	-1
-0.94232560784715	-2.394011021437492	0.390071464593237	-1
1.4156723402830704	-0.8324597671694538	1.2875087548658624	-1
-0.14045985020491575	0.10256618472636546	0.41759964461632215	-1
1.9058901832216375	-0.0486803906521678	2.586373226754948	-1
-1.3546631766595418	0.029456059270722774	0.31638611635569597	1
1.0898642572562554	-1.7039839498035474	0.569941975288561	-1
0.8593338483187868	-0.09480454095422439	-1.6824091601996494	-1
0.7067318140464631	-2.402227907408598	0.6184706330529903	-1
0.6661958928333488	2.6457846789931243	1.8215246400104157	-1
2.5733102074546603	-0.14663962880779918	-0.25419651779321634	-1
0.18555308566079529	0.975587024292133	1.5763461945531183	-1
1.013609137551719	-2.4900596638747126	0.8554575464703933	-1
0.03212898692187496	-0.0035330324104259265	-0.028885210237379572	1
2.3785632371296543	-1.459522553829913	-0.1816850639282056	-1
-2.3918329765089656	1.673670375573579	-3.006434599572179	-1
-2.6849135340718915	2.830327299926487	1.3273637342013642	-1
-0.49089937605690875	3.415757628761959	-0.5025025301632398	-1
-0.946157875378945	0.4449264554397521	-0.3824944090503662	1
0.9875766498037994	-2.0664359248840576	-1.3258833891723059	-1
2.9871462661888564	2.6646681881379632	2.130461972929848	-1
0.20426033663350493	-1.263347604243777	2.3669974737994335	-1
-1.988763881201983	0.668258893515272	-1.4205317757091462	-1
1.3056169593528453	-1.7343278612380466	0.04508060857306377	-1
0.7453563910744861	-1.0062445810953526	0.18298533388960825	1
0.5145760230985029	1.9965074342084888	0.39645707606816005	-1
-0.2159773625104754	-0.09571579263667657	0.790261351840928	1
1.0926650464318708	-1.0309872085261425	2.34180789111746	-1
1.1144033649906242	2.818864824954801	0.8171263618391276	-1
-1.7703954044168992	-1.0709986762013959	0.9042513904591329	-1
2.2646025587120664	0.02184341928727334	0.8192395264858816	-1
-0.19523509981500944	1.8563212048836277	-0.01779308290309833	-1
1.3603877697971314	-0.8817902525673802	1.3974742841783483	-1
2.9209210351180537	-0.8241055700380788	-1.260252987845938	-1
-0.5244649723958558	-2.186432954991806	-0.9045856148229412	-1
-1.6163442213545922	2.951746195833851	1.0194967981892473	-1
1.99133200979466	-2.0914162210169	1.0339905641744438	-1
-2.872001389767196	0.10278189197769781	0.5684764627920136	-1
-2.1815492807630146	1.581528915601951	-0.42534136805862527	-1
-1.638360707328455	0.5156030110059752	1.083886286253194	-1
-0.7892070901159981	2.836610275015507	1.8921415374859725	-1
3.2855757433772386	0.49355383694521865	-1.0984860448368285	-1
-2.300321943190676	1.8368809270804822	1.140115689460541	-1
0.5995883795075785	-2.3005085989096274	-2.0822117070017216	-1
-1.587901606261072	-0.965096755238006	1.5509635801145705	-1
2.639838169823282	0.38050966690025134	1.4463739450496311	-1
-0.22985721066144826	0.144342537330789	0.217424375105424	-1
0.871641910316999	-0.08595134368677804	-0.25306973618690143	1
-0.7589631607307579	-0.36506154363974863	0.4514308690387959	1
-0.6586612629645375	-0.8484392069061695	0.5800270838487784	1
-1.2042380278928222	2.277735838553845	-0.9844616445368916	-1
-2.82826365983327	-0.8187417655888487	-1.2714389349801936	-1
-0.4737899630469435	-0.4582075081206027	1.855863039350426	-1
-1.4797726490151024	1.3554928829559485	-0.3406762441288548	-1
-0.6102576529626149	-2.579788034461462	-1.2510213502236005	-1
-0.09138675406191397	2.0458270143315023	-0.0390217045683561	-1
-2.0990266770823425	2.592262845043276	1.450856816091296	-1
-0.8624335476059959	-2.2676921679069255	0.4514246219993721	-1
-0.030137156784269648	-0.3911005410376404	-2.463080471781997	-1
0.6950698691159147	-0.1314987082568394	2.338027238266233	-1
-0.39350012030278037	0.21844882326396897	-2.989890380626127	-1
0.9435517978045689	-2.7176508100393026	-0.5061985637822576	-1
-0.4356814406983389	1.7861721133641564	1.5266618828455565	-1
-1.0305495675267067	1.1103666508744194	-2.030019446032529	-1
1.654966770723445	-1.6588888373999096	2.501986543398692	-1
-2.0234624383083175	1.7528720822670039	1.2827280775998273	-1
1.1020638319296678	1.8683737403223768	1.179025652588974	-1
0.09147791890385787	-0.8639527573111381	-2.967367508544189	-1
-0.8529712921403519	-0.907662889046998	-2.6467180195872233	-1
-1.7996168823131051	-0.1461831432086391	-1.0258487581798523	-1
1.2111940848707388	2.176681773860766	0.2664905532895589	-1
0.7084722155233095	0.5422626231029913	-2.4117085371497606	-1
1.0464291395503433	-0.3031499252787426	1.596713358670366	-1
1.8615136378724264	2.504468351558475	-0.28337790149941844	-1
-0.17979994152051082	2.904869085136397	-0.49057636301032037	-1
0.7676394611880625	1.283407130056486	1.8102940012519424	-1
1.3596561016882607	-3.825717285860178	0.07760371172860514	-1
-0.2703215428747155	-2.156508007527265	0.7162362453636089	-1
-0.9467207120149386	-0.5432073049381828	-1.6256929554418313	-1
-1.1986787868772868	2.883423301195083	-0.9905967768953277	-1
-2.451494177360198	-1.802237261347931	0.2867909816613728	-1
1.2947021576889144	-1.5838135627026486	2.3530077607487967	-1
1.9085696063214723	1.7935754418608252	1.0170411830319306	-1
2.0434219566459126	-0.8975576263790291	-0.06750167601676606	-1
-2.3219705950420626	-0.1829806530526899	0.15878532894291938	-1
-1.6651161839705102	-1.5398275776675672	0.023391062069971796	-1
-0.7042374589668288	3.2245350068766543	-1.0790482385153022	-1
-0.4066984149312746	-1.0113184732658138	-2.1727648808230717	-1
-0.08039108840454573	0.011724604914539525	0.4536549819390094	-1
-0.44765987170930704	1.6881858702008232	2.658365093505721	-1
1.2467089027113798	-2.048025353750252	-1.2399940961980123	-1
0.7504530391425788	-0.3261449852293877	2.438565381433235	-1
0.6263003016224612	2.1626458413209475	0.4688646086374488	-1
1.525255351105	1.6101378021285795	1.0915814570730575	-1
0.020067279189495257	-0.5868772084193032	1.0631899940244056	1
0.10993884986553822	-1.0157409894434632	-1.887752336880237	-1
-2.0764793995943536	-1.1206222391038334	-0.5913474784014057	-1
0.7532205559489017	-1.8303387575900403	-1.6519779422761394	-1
-0.9127752598479648	-0.047203846235464475	-0.23691468521782008	1
0.3254174913684933	1.6262458656896914	-1.934675067176145	-1
-1.5564345334454637	-0.40848530776038583	-1.1052458934204406	-1
-2.41365385681081	-0.9492113672128784	0.6486380841408161	-1
0.1301349933579096	1.810937784630571	-1.5488221892113094	-1
-0.90792029459698	-0.17506521716461437	1.886611687012241	-1
0.652667055806804	0.3473614153394289	-0.8505223874237379	1
0.7610504272908793	2.6244922543862876	0.12172748075604001	-1
-0.8262119565730723	-0.6402075080128692	0.4695177329232097	1
1.5838205277784172	1.6448524890314993	0.9931549029248403	-1
-1.121099846305891	-1.0779934204927557	1.561563359256581	-1
2.0091067839632575	-0.059921359725595605	-2.9516309020887195	-1
0.32598975958054344	-0.5929225155546302	-0.9793690115211409	1
1.0047419474437858	1.52693622981358	0.5619287040788226	-1
-0.5671445214325003	2.1964337714750495	0.5321230758855858	-1
-0.858434101572504	-1.9337768982653902	-1.6222466385020582	-1
-1.198152774794318	3.4051358142726045	0.48793875758839084	-1
-1.0860997122163798	-0.8751677813696799	-0.8677174485612213	-1
-1.504754284573849	-0.0434976883789581	1.5556956142833007	-1
1.8184622610984658	1.990346385287749	0.33338661267495395	-1
-0.19654815461775757	0.1088030227553017	0.9424444033862116	1
-0.8706595589324817	-1.0337818708459932	-2.5060284304702805	-1
-2.1952311910846727	-1.0650357929033987	0.06676096716788818	-1
1.4425965002450445	-1.3331832964438632	-1.5594911607858182	-1
0.1605473736284415	-0.5338329048953246	-2.290328940160731	-1
1.5183444400519002	-2.2833697434856965	0.8742995755558175	-1
1.8826569965039877	-1.163249444780399	-1.99941363048871	-1
-0.781354513381062	1.387700446935616	-1.9296280723302275	-1
2.0793875821798666	-0.7889545409393461	2.0613363634841617	-1
0.4749967974067699	-2.697744772051491	-0.8410806185952077	-1
-2.118194619597993	-1.2421504451632561	-2.4392010843895005	-1
1.9508972478950104	-0.1717821434372292	2.5779088529059795	-1
2.411305346775782	1.2698381361775684	0.9697175777853849	-1
0.7194721332559004	2.1229820160476955	1.318824152134642	-1
2.407505434305639	-1.628615572904149	1.8143912963374949	-1
1.1403805354918388	-2.3715731498686017	-0.526060787106206	-1
-1.5893577260581686	-0.7112320015768963	-1.5215391747690423	-1
0.3164050185552363	0.15596009922720347	-0.2271375977724958	-1
1.732095197190017	-0.6387027546286282	1.1408100330864315	-1
-1.1561781565421414	1.8352034805513995	-1.9569205654960797	-1
-1.8111072693367207	-1.328274890400482	0.8280005702840013	-1
-1.385034118411083	0.2840981621564736	-2.16697300271601	-1
1.1396586617564093	-0.2909801498462897	0.2557169025447336	1
0.5563715872112306	0.05079336385217014	-2.007994695440185	-1
1.335890980172994	1.5590859868927165	-2.675947628441347	-1
-0.988337143185968	1.5779834721331503	1.2982886305071037	-1
0.44549949295874164	-1.6955912624262108	-1.4510844803551333	-1
1.1837882452995656	1.3747908883694333	0.8098933135737936	-1
-2.4968829727483666	-0.19435849720537496	-3.234775861284434	-1
-1.9164947728092057	-1.1397607520091386	-2.560435157418965	-1
-0.3302809976052323	0.06317407690219795	0.08859722124644726	-1
1.5950064372111217	0.2560261509033108	2.364617257077527	-1
1.535947607924068	-1.5813501159989778	1.1253792919228687	-1
1.4009940279544675	-2.223983002302602	-0.16514502291387867	-1
-1.021178143136272	-2.6025834196775994	1.203617733967706	-1
-0.4161580782819334	0.04509544216345648	0.10950087879299093	-1
-0.22706179893893072	-0.9769581279889672	-2.1477878366093583	-1
1.7054143555874963	1.6087842348018322	0.585543045107637	-1
2.14297826864207	-0.04813026328571513	-0.1586271075337772	-1
1.3718043127978288	1.7962050329105936	1.6254308805675874	-1
-1.0110019028203425	2.0509875882689665	-2.007144167914104	-1
-2.2444467546069435	-2.705460125931807	0.3088304105627213	-1
2.0807442331185704	0.9456942523966213	-0.8348684213295565	-1
1.4696996991113283	-1.5960991007755678	-0.9456310872433982	-1
-0.6804342721793106	-2.925153475214677	0.016783260661697892	-1
-2.417553074999565	-1.5184363644173882	-0.2316242522137682	-1
-1.7010225165318262	-2.142306153291089	3.1929563832929078	-1
1.9091175107198746	1.8450525785654737	0.9377668538851989	-1
-2.095159279771567	-0.9994763647240023	1.628820405497721	-1
1.7498053534221638	-0.5351860547767089	-1.4277393861421022	-1
1.9322941727533487	0.6253535512255439	-1.4261233555444364	-1
0.3032547513086712	-0.28567714046360665	0.19117205876805443	-1
-0.05414977398354079	-2.2056699600983958	-2.301558048697995	-1
0.1511524892461816	-0.9866444416994204	0.027482258256233016	1
-0.022894567221255265	1.4318451146475821	2.360460409797182	-1
-0.6269253753887706	-0.42810620072375205	-2.7856546641989066	-1
-0.5234722182087304	2.340515628288675	-0.555194378378284	-1
0.4563948119043132	-3.790991781533247	0.8612424935891436	-1
1.4088197827528572	0.702220063027577	-1.8077468236820669	-1
1.3758135250252326	-1.519907160007327	-1.9419402480955794	-1
-1.6068402487022144	2.1077001843290604	0.3624960596749793	-1
0.3329291665728742	0.4469818596541399	2.267001143181234	-1
0.3820966420194851	-1.4231804779501627	1.5854052790386162	-1
0.24428485475938638	-1.806657270229665	-1.1617565501310005	-1
-0.5685240134709534	0.41180147318083016	-1.828453638831455	-1
1.3679085699960574	-0.595310030906231	1.1719933033709102	-1
0.7895087127653371	-1.5467252832157443	-0.8674258278468424	-1
-2.305264275904108	0.23214663179178247	-2.2609227187693226	-1
2.4381501487802972	1.5123469229806914	-0.9161151824158875	-1
-0.8765679598542852	0.9234362964403884	1.3333362886084164	-1
0.0020329487360664198	-0.066754587472135	0.013355792572541547	1
0.876010956619103	-2.824153836934874	-0.6565638556786804	-1
0.010980750560184724	0.034462062745386816	0.4517766210399941	-1
0.48723797948084446	-0.12765900271456243	0.7124986902444714	1
3.1711292027805125	-1.5419757232583746	-0.9873070748825677	-1
0.27087367458291994	-0.24102874085974746	-0.10077414299642927	-1
-0.02551638977069125	-1.0382379278449345	-0.28087201788255006	1
0.9729430245831175	2.0156538942517748	0.6516800080745342	-1
-2.348627733539992	0.46990581211665083	-0.5480868995774685	-1
1.53737708356817	-1.5220371743858927	1.0012159482331986	-1
-1.0768754683873802	1.8451810809834353	-2.038399340441389	-1
-0.3570645241712973	-0.9208577483923046	-0.29352714958729326	1
-2.7330718720363745	-1.7738187469738156	2.071333950751466	-1
-0.13741260695021482	0.3249487369237179	2.8380969241830405	-1
-1.3876442185231141	0.8428951613607669	2.0122572562860586	-1
0.10077827897216524	-0.7246946305926381	0.7014999169290419	1
1.5496580398177264	-0.14146937247708047	2.118846478003555	-1
-2.0122691124494136	3.2689504981276367	0.362635607657557	-1
0.3091402515292258	1.0356198387687392	0.026734573547381388	1
-0.12108075591332412	1.457971492673936	2.3083383521666145	-1
0.391452645023577	-0.1931118354521998	1.202726700344072	1
0.7162577754725797	-1.0358551726596885	-2.1323648491089875	-1
0.12144850466772894	0.9671751196539081	2.312979449063799	-1
-0.3357967641741484	-0.8932936920618753	0.09059301204601494	1
0.8368647151890614	1.0957284911055658	-1.5788567470728785	-1
0.7731394076313145	-0.7909523575627513	-2.5157280138238614	-1
1.5040008566758412	1.2681725717198584	-2.0166095958753023	-1
-1.8513614108870458	0.1104108641143764	1.5504043992557826	-1
-0.7632351518131779	-0.1688491923780592	2.015059956611887	-1
-2.8764946822028463	-1.7789143028317385	0.14736429580097193	-1
0.05067907632010996	1.2931592058046348	1.2331598145069371	-1
1.542728713034507	0.5388572137753557	-1.6131306410232424	-1
-2.142598349563538	-0.17263347526890116	-2.114751802013982	-1
-0.7582315899446787	2.3149977106584516	-1.6276346917788325	-1
-0.6187095849594576	0.06148735400930895	1.504281375568162	-1
-0.15304391929215103	0.4452468929126483	-0.22947541192557455	-1
-0.27144078552209544	0.8146168736912591	2.8462075987771547	-1
2.0335540688971903	1.401632540902057	1.5489000162974178	-1
-0.7071468063478625	-0.3764537722304768	-0.6076241008221603	1
1.0703954352401417	-1.4484424851125786	1.1869417390789263	-1
1.7546359257997786	1.6925594792250214	-1.2883419950306536	-1
-0.7366584579163777	2.1514179450526902	-1.1088063889734439	-1
-2.5100860466254606	-1.7887804782254797	-1.4113832016355097	-1
1.7369494340568625	-2.0147170674348014	-2.6664793036977765	-1
-0.9268217340850207	1.4750654589704717	-2.640345482485107	-1
1.554736905722029	-2.742168854092059	-0.4904988716738896	-1
-0.12587310606351762	-2.6588235485259872	1.0527496908034908	-1
0.3649261615185529	1.1396610529223896	0.431780966745062	1
0.06633242447385286	0.0728522985482041	-0.28336382822711953	-1
1.509242114557721	0.41611300152241687	-3.3732656802189376	-1
-0.07006612712069779	0.94385443586366	-0.36763593443527887	1
2.575623839300999	0.5329941456952039	0.9699645966893438	-1
-0.23241194504863696	2.7879845176926867	-0.9504598795587187	-1
-1.5685318481486505	1.551068075033002	-0.3686058303107893	-1
2.136658113706988	0.7657919578861309	-0.21769331060434538	-1
-0.9008929578991451	-3.113580551096278	-0.7534221777302408	-1
0.5477585748382496	-1.6276968994932173	-1.6782308625315185	-1
2.4391475148703368	1.1255980653512732	2.0733479754996478	-1
0.8302715465254439	-0.6267794352647732	-0.36482856681319537	1
2.247244557736925	2.0048072743998286	-1.4208289319690053	-1
-0.0899646891408668	-1.2664257491616213	1.5425158304013613	-1
-2.211398253385698	-1.1396118411756442	0.33218369955584476	-1
0.14074794359151935	1.0104944149653783	-0.2636187651458179	1
0.041493085101019934	-1.9818343478906693	1.5215872983413423	-1
-0.10543033802208651	0.7508102825394827	-2.443118774531447	-1
-2.102109264336618	1.2573218293841926	-2.1465158789927457	-1
-2.4367141370582077	-2.3853423297759817	-1.2660085497033415	-1
-0.0058468074560365565	0.14196720779999697	0.4423997196561077	-1
-0.22187065311836754	1.8279522134118444	-0.884464075379189	-1
0.6387308884944143	-2.137863203319182	1.5697869504359199	-1
-0.29934989195158174	-0.07985537746190113	-1.0006930871838653	1
-0.6560056512763586	-0.5743998422852299	0.20300346767145572	1
0.7718457487883109	2.7309992992124763	-0.482750836845744	-1
-0.1680967891371386	0.4234007740964981	-0.31291715693037037	-1
-1.3358591487344835	-1.5717575341129948	-0.15726540890609672	-1
-0.3739570097391907	-1.9955571138575472	-0.7128912556639547	-1
2.1895822265680382	1.3964616454438676	1.1976035372969176	-1
-2.5484822067421375	-2.2839444230850954	-1.2178541416332103	-1
0.6831524874334357	-1.442999214999003	-2.513818646252105	-1
2.568893782016541	0.7419057301963321	2.8755277036777245	-1
2.1687802473823945	-0.70080236658476	0.48370155926186026	-1
0.8896222347618	0.4075101758816524	-0.24319843731486734	1
-2.5347759849725278	1.0633859209645082	-1.5200847833341287	-1
-2.566406656221226	-0.049413886115635165	-1.8366242447967425	-1
-1.8843352442032497	0.7440912455167248	-0.3265572481374247	-1
-2.9752493837353895	-2.4217681235809874	0.9585374245718319	-1
-1.0195679542198164	-1.7332380573418735	1.4513341127680044	-1
-0.5674664623165406	-0.48331190121859857	-0.6603797247249422	1
0.48975515700286415	1.9709303828969782	-0.5089532908318146	-1
-0.18201143881893678	2.1009838420130964	-2.349083020220899	-1
-0.16485874349171062	-0.8910969579617556	-0.953625765315379	1
-0.5607472096054928	-1.8331352291400318	1.7766999970237483	-1
0.12062469982502809	-1.7877356510717868	-0.35728201425546857	-1
2.273941864902544	0.3716087363829369	1.741304081131839	-1
-0.5452209733080123	-0.9213599938816778	0.3699117567679366	1
-2.0785080252113266	-0.09101808631056484	-1.1912191843359492	-1
1.8067412172495012	0.7345146324068464	-0.09432556720368016	-1
1.021919440389185	-1.1843605393129577	1.6076060446621114	-1
-1.9985891592655929	1.2876557454177917	-0.34044921229657665	-1
1.093423623335624	-1.6790786586111448	1.5735338213973442	-1
0.20753770576502695	1.2026145847557848	-0.25461480218144045	1
-1.5965742505404554	1.9833883763779572	-0.06306218029452236	-1
2.5718104642548125	0.551332944451876	-0.8822986927579498	-1
2.198693636748605	1.062342526485271	-1.7091102102977016	-1
-0.30231552569480685	1.2960342751192557	-2.466986086997494	-1
-2.1780166741470293	1.5459071369719193	-1.1331486132074682	-1
0.9743602498377092	-1.540193127278002	-1.8787991852332127	-1
-1.0325290267141427	-0.6587886843502817	-2.5330767157314535	-1
-2.3650943414802956	-1.4020277294845793	-0.16646333026558055	-1
0.5460310816166252	1.2892253527082493	-3.4640274200839265	-1
0.40350946562571893	2.9019501308872933	1.8009186133568584	-1
-1.2705496735107908	-1.1122232162589627	1.0911000178607124	-1
-0.15617374522553545	3.047726708582163	0.2137505294483519	-1
0.6674621919138126	-1.68310863481411	-1.7903385827798368	-1
-2.5509523489613404	0.6008914955210591	-1.2553014287030526	-1
1.3434283550715143	-0.6160811800084652	2.5946540168762398	-1
-1.1606841210490904	2.0443273375198148	-1.7625553086492833	-1
1.0385148807515805	-1.8111239363957492	-1.8936909121273762	-1
1.0398747199708076	-0.8686724082244885	-2.973052838585456	-1
-0.929976465499101	2.737244672760918	-0.3022406655120291	-1
-0.01482858436025395	1.8030083274173034	0.27353583587932745	-1
1.2458425258004953	-0.735465523670381	-1.9737232466696626	-1
0.8934871567692945	0.6808672446986416	0.6007346201331651	1
-0.1900866835743623	2.0370586268408317	1.0333992792459121	-1
-1.026258593437739	-1.99234295124989	1.080990677054499	-1
-0.85682678703384	0.28922563591794587	-0.2904712972395776	1
-0.10692511671158585	-0.052364479231564356	-0.04862772578986778	1
-2.0226362203262886	-2.1069960122419586	0.25660836978572926	-1
-1.142042620392949	-2.158279013530967	-0.9303703975160169	-1
1.1634321294781227	-1.2405921769015942	1.25672569241899	-1
2.5927955959919573	-2.5467857090563832	0.005305161725331572	-1
2.124846432167084	-0.13297459973948345	-2.989304565446311	-1
-0.28345636973422944	-0.9641519546689147	-0.15839769863339737	1
-0.5665159025009971	-2.13527201753736	-1.3694015762123173	-1
2.6382308024983243	-0.06784882328493747	1.1124699864640177	-1
0.10355012137909243	0.4895568155879551	-2.105182888057896	-1
-0.047551444333233536	-2.201002216560942	-2.566454790242872	-1
2.071805987945829	-0.45823579277443854	-0.020201778268836033	-1
0.2673146373821323	-0.2616984529711373	0.23693663968172718	-1
2.2840495273695933	-0.5156146307162613	-1.0956450198524859	-1
1.6752966484173841	-1.024518454094513	2.6836959226227877	-1
-1.2589981427237928	0.2001886696516782	0.04985099278634784	1
0.7405823629054	-2.579442571955457	1.1450672475963002	-1
1.7890187779329665	2.9748569635073134	-0.04652783176553804	-1
-1.6912735628295228	0.22762791571744645	-1.0846167701626117	-1
0.8967423169077655	0.47940293143794	-1.6302166052980362	-1
0.16989633928755588	0.7379939337538888	-2.6944119607919386	-1
-0.2996190624065353	0.03534927107003101	-1.19572999103168	1
1.4150357936938713	1.4323197419888818	-0.6352753811561933	-1
2.0016114080892797	0.3812159449515713	-1.2168653950933033	-1
0.8403540412100953	1.5414727315448493	-1.2927316230419894	-1
-2.1364569149261743	-1.0342987386180589	-0.5696842636138103	-1
0.582894748625964	-3.4826316916260107	0.29869150683608386	-1
0.26731760186496073	2.3401784794811493	-0.6275106863940407	-1
-1.7722209599103487	1.3839836740565783	-0.295369124953309	-1
-0.2699302250160933	-0.25580883100730756	-0.11277241132604535	-1
0.8975708922676863	-0.6930459074804565	-0.2559363347534981	1
0.6178984240407485	-1.7605213649091647	-0.0213381778410439	-1
0.020444778259555416	-1.7702916320429176	-0.6532634696724101	-1
-0.6717844171464109	-2.5779450792032055	1.8202378240861439	-1
-0.7887760242825994	-0.5892382649812922	2.1698345095311162	-1
1.7137047343213834	1.2729932160216546	1.4893587220970361	-1
1.9256485118904445	-0.9471448475161113	1.517086418235	-1
0.5950484062287305	-0.37274089909571423	2.060890783981973	-1
-2.1871106025139224	-2.5250741546381454	-1.6347167148084047	-1
0.37847698108373296	-0.74121500075604	-0.34717726249595326	1
2.3831864488867627	0.652982236240936	-0.890416432154861	-1
1.546832238915661	-1.610001454048701	-0.9161646417922031	-1
1.5774527903852618	-1.0943035495544677	-1.677047957551337	-1
2.2329710245742644	-1.3801858510684455	-1.9037186739236642	-1
1.7990222575125765	-1.6702911680020556	1.5156933653391338	-1
-0.09535601761098189	1.5937700077639376	1.2050554426957678	-1
1.2560580117416589	2.645143690349155	0.23123152724330578	-1
0.1205687167561485	1.8939654522196379	-1.1852633107342185	-1
1.2486914824990318	-1.6486448530227023	0.24812830852003437	-1
-0.27904489870426863	0.8112908061438238	-0.48184606226074767	1
1.7776594103878567	-0.9335025525665677	-0.4660779897079388	-1
1.0131042217636788	-1.5592966625730569	-1.4393352024171393	-1
-2.4195629965483825	1.9950377921018339	-0.24187922373830642	-1
-0.44100413898756297	-0.8135286619002546	0.4716301900579346	1
-1.3057122338315348	1.9452369701597907	0.04841170303468306	-1
-1.9089412083620687	-0.7716323819761548	2.48300821355375	-1
0.01249548997182275	-0.41568890527190033	-2.354220246457204	-1
-0.4367459769553548	-1.0908669343322603	1.7756669574565738	-1
-2.2401186237527937	-0.8486279001786476	-0.6608448872662437	-1
-3.2487409704489423	0.3221574627459123	1.2305356056782601	-1
0.8750852159139493	-0.4436709080260961	-0.48725575548659744	1
0.4825760423765961	1.8498570801009002	-1.6531533913113923	-1
-0.7821932726933332	1.1858666501834763	1.8941297733223141	-1
1.7944350665064839	0.14027462762251466	-1.4487481947522094	-1
-1.3477394611105533	2.201321240848583	-1.0125186217470303	-1
0.9156266184549203	2.5951997772601954	1.881621458841502	-1
-0.9043273682376383	-1.3341511679116853	-2.1436456918468223	-1
-1.085284180949366	0.7424601117761673	0.3536887899575838	1
-1.9757459243247089	-1.3915689509339193	0.35628038211704577	-1
1.9953318612937825	-0.28169757190901396	-0.936211050901409	-1
2.4353093914113106	0.5164921727979671	3.1420867227397955	-1
2.400614151138468	-0.33049878547170386	0.26251961867017815	-1
0.6621445766835784	0.7671696012204791	0.33214923736479013	1
-1.8766715195773978	0.40131742939685433	-0.45390942715773674	-1
-0.9611549859371769	-0.04876265346129973	-1.8918105108837169	-1
1.7893930086554837	1.54873573996701	0.008584997167052598	-1
-1.5885617898480326	-0.8690259605783871	-2.6494202289290865	-1
1.3576001816883576	0.9388539516380434	0.5721062003610808	-1
-1.1999115269759038	0.8823622308676529	-1.8265411913378242	-1
0.7122239504114424	2.0871692855898494	2.2451446862044797	-1
0.6992652519935337	-0.9408164673874824	1.1240918225380283	-1
0.7013906900635121	-0.9587334967362008	1.4678823560598013	-1
0.27708651839548304	2.2479710639885493	-0.8400408256598549	-1
-0.7474716861519473	-0.1510153374851848	0.9789699938666123	1
-0.843672301213778	2.117080291549075	-0.35920578399289377	-1
-0.526468273047936	1.5019235779637619	-0.6105747926454568	-1
-0.48228591440833884	2.5279181957195616	-0.5201173635541134	-1
0.008620821040277482	-0.5168940189986606	-2.085004452851876	-1
-0.14546864097732898	-0.82342513991862	0.5532733443681938	1
0.8438769604839575	-2.5417406095467134	-0.8182977170180911	-1
1.1354057304834866	0.6366547561995642	1.5212796146771566	-1
1.8226885117443221	0.9380766545898164	0.7894554771592894	-1
2.5375930441799746	-1.2407210728573506	-1.8683984978744939	-1
1.3548601247510437	-1.6747493130877265	0.7595042813027808	-1
-2.327358044436265	-1.9997868528772125	-2.068204008053934	-1
-0.5679963720895407	0.8969246393659192	0.50693954431939	1
2.4927461284542987	-0.8382346005959249	-1.5097137945715462	-1
0.3082518344209233	1.6120908738954887	2.2309466445879953	-1
-1.976172946457422	1.1506676989266653	1.313084357242647	-1
-2.0648416634461966	0.7510886304219041	-1.0626632768898112	-1
1.3972338035323197	1.2515547763933839	0.40451295839269846	-1
-4.483929326233509	-1.5578898647189567	-0.8443177994958235	-1
0.6235343725943258	-1.8213417260378915	-0.39959309814625366	-1
-0.11739207953551456	0.13092175820025434	0.7577048471196249	1
1.3440349020719307	1.3181809202232015	0.8688506790426163	-1
-2.1257514654627188	-0.038782822874320735	-0.4189558090698798	-1
-0.5119976698687845	-0.9755674150541616	1.435628576148869	-1
-3.3901825702188377	0.1505138661549572	0.7932400524794385	-1
-1.063390539048571	-0.8465625368863758	2.3588324197473396	-1
-0.6792986888416879	1.3332311636221854	-2.404711485692531	-1
0.12121312192980788	0.011698137262243233	0.312962308760875	-1
1.2126584165066516	1.5232883371068078	0.8139627483509216	-1
-1.1191199837755736	0.49957199331070606	1.5628771115120452	-1
-0.2699019437022182	0.3009228073065263	0.13570641497869967	-1
-2.100818549102803	-0.0448684854666148	0.3992918081123682	-1
0.9004920111610831	-0.6538510168247759	1.5239938401348878	-1
1.246016518677289	2.125534948583389	1.4761551058940225	-1
2.0391183472015535	1.7109827771308126	2.3340768594047168	-1
0.5844596032186445	-2.494043454648409	-0.5813325625172981	-1
-2.111048272535688	-0.5973319381821106	-1.3776372529156777	-1
-0.22320216278951766	-1.0415088527173748	0.2392918523639631	1
-2.102690150120755	0.48327126666319675	-1.6018699120499793	-1
-0.33721624744828443	1.556915560232083	-2.4339948414675514	-1
0.27292856884611655	0.42609062083097443	2.3449728833249597	-1
1.129377853929532	-0.0066999893690903485	-0.011933774175962928	1
0.2558971165782708	0.1255687295189105	0.06861488415055941	-1
0.1836239452685995	-2.023135882974053	1.1410047905678637	-1
-0.6166606505715295	2.058049404058045	0.37337604234966115	-1
0.37362528307662524	-0.5174727408428929	1.848258694152521	-1
1.5723092832465198	-2.284781246482567	-2.6555851448930214	-1
-0.10491987133344394	0.08136038873659428	0.19476864158520846	-1
0.8754879818849987	-0.6760179902215566	0.49711086915111624	1
0.07112573817358152	-0.2801714697073355	1.0961504524259806	1
-2.2627210859841016	0.8438309094759783	-0.31316762786933927	-1
-0.5590151666880656	0.42636091530266357	1.968647538023236	-1
-1.800610594350962	0.916562553420837	-2.4799609866338543	-1
1.890875058431252	1.0546044006818536	-0.9465098665369706	-1
-0.3393581071210826	-2.8321235046347364	0.22311311980952195	-1
0.2591176058344388	-0.18648488817147177	-0.17679490349203816	-1
-0.5732748169297315	1.0021059326551585	2.048478976587633	-1
1.5434626844598227	-0.6607495029759471	-0.4316084508978253	-1
-0.09594203864644707	0.5767003171945707	-0.7982698910015027	1
2.731629483887705	-1.1241102132103589	0.36119430513060835	-1
0.2907988410358458	-2.3367576153766545	1.7824067527382952	-1
-0.7965652667510263	0.2848806334890633	0.8507122957350233	1
-1.2983418458580127	-2.5488156417679577	-1.0654804851434738	-1
-3.1606131105910222	0.18868499901210856	-0.9549068564151515	-1
0.5973979973468925	0.6682548742464107	1.8641105137315208	-1
-0.18330627905361008	-0.3061012605221255	0.19520776009551177	-1
2.644559160340737	-0.09393548621809243	-0.4549790107504544	-1
0.4628348400763135	-1.8124756250936416	-0.8174193174178882	-1
0.1056632332867612	0.04597835049631116	1.0263260422522744	1
0.8890839062126933	0.5149989341137197	0.23424803254952942	1
0.6661471040490412	-1.778991438991007	3.4307905448778366	-1
0.02521705054045233	0.19312119084623303	2.5350099258216034	-1
-1.4617147898853953	0.01703226311171878	-2.575559540370154	-1
0.4301166804875771	1.9976310360556848	-1.909807646976075	-1
2.05634600317307	-0.5700132734649188	-0.5176858882223562	-1
-0.19124374155306378	0.7060172689618365	1.0077030227424695	1
